# .PCD v0.7 - Point Cloud Data file format
VERSION 0.7
FIELDS x y z
SIZE 4 4 4
TYPE F F F
COUNT 1 1 1
WIDTH 440
HEIGHT 1
VIEWPOINT 0 0 0 1 0 0 0
POINTS 440
DATA ascii
5.9604645e-08 0.0068575046 -0.06392993
5.9604645e-08 0.041570786 0.084231794
5.9604645e-08 -0.044167358 -0.082633927
0 0.0030322412 0.027100593
5.9604645e-08 0.0046886099 -0.030105412
5.9604645e-08 0.0043616397 -0.016976908
5.9604645e-08 0.0042983806 -0.016234577
1.1920929e-07 0.0040028142 -0.0066646487
5.9604645e-08 0.0039929594 -0.0033557266
0 0.003434174 0.015250027
5.9604645e-08 0.003467266 0.016285181
0 0.0033305113 0.018736646
0 -0.027798133 0.082509279
5.9604645e-08 0.0013299966 0.038002864
5.9604645e-08 0.0043186336 -0.014704645
5.9604645e-08 -0.013083092 0.081407115
5.9604645e-08 -0.017760603 0.092191756
5.9604645e-08 0.0061633373 0.083532125
5.9604645e-08 -0.044003546 0.086502135
0 -0.037750665 0.08479777
0 -0.037992742 0.085448891
0 -0.035857107 0.084456936
0 -0.040100817 0.085427463
5.9604645e-08 0.027770998 0.094178393
0 0.0035325044 0.010015085
5.9604645e-08 0.012481766 0.079984441
5.9604645e-08 -0.031638954 0.082651049
1.1920929e-07 -0.033332445 0.082963869
5.9604645e-08 0.035705406 0.083400577
5.9604645e-08 0.0015785981 0.077187642
5.9604645e-08 0.00039470172 0.074781075
5.9604645e-08 0.034142494 0.0831846
5.9604645e-08 -0.036215715 0.091958746
5.9604645e-08 0.014352627 0.080411151
0 -0.033940598 0.084320113
5.9604645e-08 0.0023398981 0.053733855
5.9604645e-08 -0.025694318 0.082509428
0 -0.038139004 0.091877714
0 -0.0049355114 0.074823871
5.9604645e-08 -0.0059824996 0.079132274
-5.9604645e-08 0.00038691447 0.066666588
5.9604645e-08 -0.029076798 -0.079647392
5.9604645e-08 -0.0059769428 0.045352474
5.9604645e-08 -0.0053210659 0.076856613
0 -0.047234446 0.091772988
5.9604645e-08 -0.030970614 -0.079962924
5.9604645e-08 -0.0050631054 0.017238542
5.9604645e-08 0.024802927 -0.078161821
-5.9604645e-08 -0.0049243094 0.0043070912
0 -0.0058535971 0.044376045
0 0.0022960019 0.010885298
0 0.00083204871 0.058457777
5.9604645e-08 0.024077846 0.081796616
1.1920929e-07 0.038298681 0.084865943
5.9604645e-08 0.001453981 0.031364903
0 -0.0055786083 0.031515256
0 -0.038390182 -0.090962619
0 -0.047113188 0.086495116
0 0.0022065295 0.079497248
5.9604645e-08 0.005773759 -0.035878807
0 -0.0052465643 0.024940103
5.9604645e-08 0.0042199595 -0.010772407
0 -0.039050099 -0.090404943
0 -0.039973956 0.091797292
5.9604645e-08 -0.0056708567 0.037240505
5.9604645e-08 -0.037427798 -0.091110498
0 -0.0056332038 0.034879074
5.9604645e-08 0.0038157711 0.0047835112
0 -0.0043207328 -0.011111215
5.9604645e-08 -0.041803516 0.091627926
5.9604645e-08 -0.0057880408 0.041039288
5.9604645e-08 0.036232445 0.083825752
0 -0.0038967193 -0.02786614
5.9604645e-08 -0.04517018 -0.083947763
0 0.00360702 0.0083331913
5.9604645e-08 -0.011849534 0.081284374
0 -0.0097240433 0.081053525
5.9604645e-08 0.028807053 -0.089170367
1.1920929e-07 -0.0033589585 -0.056507826
5.9604645e-08 -0.044737216 -0.08311604
0 -0.0038290899 -0.038278207
5.9604645e-08 0.0024034271 0.081214756
0 -0.0036962144 -0.036968514
0 -0.034102518 0.092529461
5.9604645e-08 0.027111813 -0.089084938
5.9604645e-08 0.042086974 0.086802989
5.9604645e-08 -0.036857393 -0.090458244
5.9604645e-08 -0.0055580777 0.032963946
5.9604645e-08 -0.0052086599 0.023837343
5.9604645e-08 -0.045006488 -0.08787109
5.9604645e-08 -0.022518506 0.08298111
5.9604645e-08 -0.0044844486 -0.0049697459
1.1920929e-07 0.030049065 0.082687438
5.9604645e-08 0.032032665 0.082742885
5.9604645e-08 -0.00086748414 -0.088961259
5.9604645e-08 -0.0039832583 -0.023940355
5.9604645e-08 -0.0049988991 0.016001821
5.9604645e-08 -0.0037655651 -0.035980269
5.9604645e-08 0.037479032 0.084233522
5.9604645e-08 -0.0036509454 -0.040314496
5.9604645e-08 -0.045083418 -0.085797831
5.9604645e-08 0.026205959 0.082159117
0 0.003724891 0.003675878
5.9604645e-08 -0.032226443 0.09196122
0 0.0050616758 -0.037368625
5.9604645e-08 0.041034486 -0.087740436
0 0.0038289709 -0.044600934
0 0.0028198338 0.035459399
5.9604645e-08 -0.04453532 -0.090324357
5.9604645e-08 0.0017802722 0.03307654
5.9604645e-08 0.020764997 -0.07740885
5.9604645e-08 0.0012924834 0.030474529
5.9604645e-08 -0.0048627532 0.053836331
0 -0.046331227 -0.083689079
5.9604645e-08 -0.0050505502 0.018396989
0 0.0020150645 0.024879754
5.9604645e-08 -0.0048196157 0.051981017
5.9604645e-08 0.0044168206 -0.020562708
5.9604645e-08 0.04050272 0.08500725
5.9604645e-08 0.019225983 -0.088369787
5.9604645e-08 -5.8064004e-05 0.065108359
5.9604645e-08 0.0038491117 -0.048639148
1.1920929e-07 0.00094135944 0.056047633
5.9604645e-08 0.014936917 -0.077262744
5.9604645e-08 -0.047203485 0.088052034
1.1920929e-07 0.025914174 0.094042629
5.9604645e-08 0.0057984143 0.093242913
5.9604645e-08 -0.029711854 0.082589835
5.9604645e-08 0.0339025 0.092987746
0 -0.0048934054 0.058604732
1.1920929e-07 0.0076086936 0.092632577
0 0.0079905232 -0.089400947
5.9604645e-08 -0.0028002334 -0.069650844
5.9604645e-08 0.045709863 0.091199219
5.9604645e-08 0.0049997512 -0.022982076
0 0.0052086427 -0.031762958
0 0.0038565197 -0.042290896
0 0.0025360668 0.047428295
5.9604645e-08 -0.0043556811 -0.0088161677
5.9604645e-08 0.00085101696 0.060075745
5.9604645e-08 0.0064446772 -0.071346268
5.9604645e-08 0.0012451119 0.043318599
0 -0.0042830007 -0.0098839402
0 0.005737396 -0.03350167
0 -0.030717734 -0.090421095
0 0.028934389 -0.078061387
0 -0.012773734 -0.077306509
5.9604645e-08 -0.03274883 -0.090259299
5.9604645e-08 0.002716972 0.043963477
5.9604645e-08 -0.017747909 0.082966805
5.9604645e-08 -0.039078902 -0.081884384
0 -0.004791908 0.049603179
0 0.0013511926 0.041340739
5.9604645e-08 0.0011450015 0.053767949
5.9604645e-08 0.0064471578 -0.067335546
0 0.0010815957 0.057452708
5.9604645e-08 0.0012562566 0.051917985
5.9604645e-08 0.0044574151 -0.05491899
0 -0.0048600752 0.050967455
0 0.0036908311 -0.050081581
5.9604645e-08 0.040915556 0.084367409
5.9604645e-08 -0.0051681725 0.064058989
5.9604645e-08 -0.0033623648 -0.073876485
5.9604645e-08 -0.0089339074 -0.089116618
0 0.004944833 -0.023753777
5.9604645e-08 0.004252003 -0.052956045
5.9604645e-08 0.0029540991 0.036998704
0 0.0069001364 -0.075682059
0 0.0052243955 -0.025454581
0 0.0037610673 0.093311056
0 0.032862313 -0.079293147
5.9604645e-08 -0.00712224 -0.076332405
5.9604645e-08 -0.040868822 -0.090336829
0 -0.044847637 -0.089524001
5.9604645e-08 -0.047071628 0.085396543
5.9604645e-08 -0.01694371 -0.089288592
5.9604645e-08 0.0022541892 0.012029812
5.9604645e-08 -0.017178603 -0.078859836
5.9604645e-08 -0.018878818 -0.089382783
5.9604645e-08 0.0031874576 0.02222614
5.9604645e-08 -0.0067984834 -0.089134157
0 -0.019113129 -0.078823715
5.9604645e-08 -0.0057264613 0.039131314
0 0.029111743 -0.088090748
0 -0.0041496744 -0.015277207
-5.9604645e-08 0.0061090942 -0.05933921
0 0.0071456493 -0.08875981
0 0.015652806 0.08062093
5.9604645e-08 -0.031139869 -0.0810996
0 -0.022864457 -0.089410871
0 -0.0040688086 -0.021688417
5.9604645e-08 -0.03478092 -0.081561998
-5.9604645e-08 -0.043113772 -0.08296679
0 -0.021065244 -0.079050183
5.9604645e-08 -0.03306311 -0.081218392
5.9604645e-08 0.0039959596 -0.043459207
0 0.0017401003 0.078220889
5.9604645e-08 -0.041219786 -0.082813904
0 -0.040590812 -0.082070187
0 0.0051781437 -0.088859588
1.1920929e-07 0.00017464999 0.070588514
5.9604645e-08 0.0031554715 -0.088912979
0 -0.03705566 -0.081972197
0 0.03111444 -0.088037372
5.9604645e-08 -0.047222063 0.090008572
5.9604645e-08 0.01071072 -0.076179728
0 0.0086484114 -0.075824142
0 0.02744885 -0.077970564
5.9604645e-08 -0.011024204 -0.077193245
5.9604645e-08 -0.010929735 -0.089226246
0 0.0018731989 0.022728249
5.9604645e-08 0.023907717 0.094084308
0 0.028165065 0.082461283
5.9604645e-08 -0.026910134 -0.079801083
5.9604645e-08 0.012405272 -0.076281428
5.9604645e-08 -0.028937995 -0.089627981
5.9604645e-08 -0.024988331 -0.079628482
-5.9604645e-08 -0.024846163 -0.089471549
0 -0.004989299 0.013999552
0 -0.023126986 -0.079376757
-5.9604645e-08 -0.010671134 -0.076814502
1.1920929e-07 0.009118177 -0.088719115
1.1920929e-07 -0.0034267695 -0.055033609
5.9604645e-08 0.0038731173 -0.00041098893
5.9604645e-08 0.0097899958 0.093272477
5.9604645e-08 0.022155356 0.081739381
5.9604645e-08 -0.013233934 -0.078333765
5.9604645e-08 0.0036133395 0.020630807
5.9604645e-08 0.0050880159 -0.027450219
5.9604645e-08 -0.023965809 0.08271797
5.9604645e-08 0.0041212379 -0.004662782
5.9604645e-08 0.0021473225 0.023894414
5.9604645e-08 -0.0064399829 -0.074435979
5.9604645e-08 -0.0047906768 -0.089110523
5.9604645e-08 0.043063328 0.094162345
0 -0.0046529518 0.047552705
5.9604645e-08 0.022957452 -0.077430084
5.9604645e-08 -0.042605445 -0.082483813
0 0.0034830621 -0.0379792
0 0.043057147 -0.08822383
1.1920929e-07 0.0063246172 -0.069454521
5.9604645e-08 0.006346189 -0.065583766
5.9604645e-08 -0.026143629 0.092788547
0 -0.01517961 -0.078427181
0 -0.028077284 0.09282507
5.9604645e-08 -0.0079100411 0.081024781
0 -0.014141281 0.082837105
5.9604645e-08 -0.0050493823 0.072681606
0 0.0025588714 0.045788705
0 -0.0049339691 0.0013415068
5.9604645e-08 0.004262072 -0.012681395
0 0.037269071 -0.088750154
5.9604645e-08 0.025098249 -0.077694163
1.1920929e-07 -0.028303163 0.092210963
0 -0.015884513 0.082557857
5.9604645e-08 -0.0045792586 -0.0033927113
0 0.013069714 -0.088548705
5.9604645e-08 0.030011803 0.094180182
1.1920929e-07 -0.0054299254 0.028291225
0 -0.0058837328 0.042853534
0 0.0034438209 -0.040289342
5.9604645e-08 -0.045887463 0.085351616
5.9604645e-08 -0.014831208 -0.089231193
0 -0.0092404438 -0.089900643
5.9604645e-08 -0.022241244 0.092759758
0 -0.034735989 -0.09091413
1.1920929e-07 0.042255718 0.094260737
0 0.026571404 -0.077737913
0 -0.0035755762 -0.053061172
5.9604645e-08 -0.024189094 0.092779726
5.9604645e-08 0.013387575 -0.089160383
0 -0.0054965275 0.030266181
5.9604645e-08 0.0036959965 -0.046370789
0 0.047046434 -0.087310642
0 0.0047904653 -0.029070064
5.9604645e-08 -0.012728666 -0.076717347
0 0.0020564978 0.014244884
5.9604645e-08 -0.04200162 0.085402206
5.9604645e-08 -0.046540581 0.092395499
5.9604645e-08 0.0046628313 -0.019030809
5.9604645e-08 0.013254063 -0.07686542
0 -0.0038136507 -0.043548897
5.9604645e-08 -0.0050278008 0.05996123
5.9604645e-08 -0.019977059 0.08452864
0 -0.0041021057 -0.019576877
0 0.0056818137 -0.057242721
5.9604645e-08 0.010402327 -0.089324594
5.9604645e-08 -0.0049152244 0.009858638
5.9604645e-08 -0.0049985587 0.057513222
0 0.048715804 -0.086930409
5.9604645e-08 -0.0092201717 -0.076761767
0 -0.0037595131 -0.034122571
0 0.006163842 -0.063176721
5.9604645e-08 0.041988235 0.085061565
5.9604645e-08 0.0070993248 -0.070511609
5.9604645e-08 0.021823831 0.093775988
5.9604645e-08 0.041522354 -0.088434309
5.9604645e-08 0.039408024 -0.088580459
1.1920929e-07 0.035219651 -0.079284444
0 0.036909945 -0.078990504
5.9604645e-08 -0.0043819007 -0.016351163
5.9604645e-08 0.038969412 -0.078890041
5.9604645e-08 -0.0063845469 0.070246324
0 0.040954862 -0.079107359
5.9604645e-08 -0.0041390047 -0.01735267
5.9604645e-08 0.042917639 -0.079108939
5.9604645e-08 -0.02764637 -0.090506747
0 0.042960532 -0.080690145
5.9604645e-08 0.043825187 0.088782728
5.9604645e-08 0.044781901 -0.080827549
5.9604645e-08 0.046819001 -0.082670018
5.9604645e-08 0.033214338 -0.087971732
5.9604645e-08 -0.0038662567 -0.030438259
0 0.016734054 -0.077235073
5.9604645e-08 0.047232158 -0.084460422
5.9604645e-08 0.045746025 0.089169025
0 0.015768647 0.093737319
5.9604645e-08 0.019730218 0.093832925
5.9604645e-08 0.021078266 -0.088385209
0 0.0014016333 0.039204687
5.9604645e-08 0.017202003 -0.089367554
5.9604645e-08 0.0064090481 -0.061264426
5.9604645e-08 -0.020103751 0.092807457
0 -0.003635616 -0.044609889
5.9604645e-08 -0.0028100107 -0.065474078
0 0.011227444 -0.089403391
5.9604645e-08 -0.018180646 0.092723787
-5.9604645e-08 0.0050075008 -0.089428917
0 -0.01615724 0.092803001
0 0.001311895 0.049816281
5.9604645e-08 0.015303789 -0.089572579
5.9604645e-08 -0.014156237 0.092854708
0 -0.01218586 0.09289521
5.9604645e-08 -0.01012697 0.092987791
5.9604645e-08 -0.0028976512 -0.089807302
0 -0.0047008814 -0.00064966083
5.9604645e-08 -0.0082281623 0.093131512
5.9604645e-08 -0.002201387 0.093003541
5.9604645e-08 -0.006066822 0.093210936
1.1920929e-07 -0.0041691521 0.093053013
5.9604645e-08 0.0018328037 0.093134582
5.9604645e-08 -0.00014500646 0.093041822
0 -0.0075051226 0.079294696
5.9604645e-08 0.00036788592 0.072543219
5.9604645e-08 0.0045333668 0.083361387
0 0.0079672206 0.093216732
0 0.01017968 0.084087625
5.9604645e-08 0.0034101817 -0.089424968
5.9604645e-08 -0.003120393 -0.061178923
5.9604645e-08 0.013743758 0.093533605
1.1920929e-07 0.0037746069 0.0025248379
5.9604645e-08 0.035098765 -0.088740826
0 -0.0033137323 -0.057521909
5.9604645e-08 -0.0053057624 0.026580006
1.1920929e-07 0.023415903 -0.089048475
0 0.045232639 -0.088135913
0 0.031742245 0.093030602
0 0.031381521 0.094053149
5.9604645e-08 0.025236165 -0.089245245
0 -0.042769942 -0.090272844
5.9604645e-08 0.0028808464 0.033375368
5.9604645e-08 0.039742075 0.093126878
5.9604645e-08 -0.0049396926 0.055854112
0 0.0015003004 0.028917074
0 0.041761115 0.093251079
5.9604645e-08 0.021529777 -0.089146212
0 -0.031628639 0.092609063
5.9604645e-08 0.037835091 0.093015403
0 0.045589898 0.09352091
0 0.043699212 0.093447894
0 0.033765282 -0.08886762
5.9604645e-08 0.043919586 0.087324902
5.9604645e-08 0.045793831 0.090335384
5.9604645e-08 0.0065025771 -0.073528677
5.9604645e-08 0.0005260054 0.064131111
5.9604645e-08 -0.020855531 -0.089426935
5.9604645e-08 -0.0031606597 -0.071790889
5.9604645e-08 -0.0049045086 0.011843726
5.9604645e-08 -0.0036163765 -0.048737049
5.9604645e-08 0.020154294 0.081584111
0 0.014968156 0.08073774
0 -0.0049080681 0.0077901185
5.9604645e-08 -0.0048626596 0.0055860579
5.9604645e-08 -0.005732595 0.078211725
0 -0.0052081719 0.068425059
5.9604645e-08 -0.0051895799 0.066415712
0 -0.0029477449 -0.06301944
5.9604645e-08 -0.0040209987 -0.022873715
5.9604645e-08 -0.0050238334 0.065074667
5.9604645e-08 0.016445283 0.080992728
0 -0.0034206377 -0.049973577
5.9604645e-08 0.00024401327 0.068647578
0 -0.0032512522 -0.059230104
5.9604645e-08 0.0010179318 0.051118761
5.9604645e-08 0.004113473 -0.0097859055
5.9604645e-08 -0.040160019 -0.090960786
0 0.046598095 -0.08080855
5.9604645e-08 0.0078956038 0.083466411
5.9604645e-08 0.0024935019 0.0015877038
5.9604645e-08 -0.0042311382 -0.013159648
0 -0.030090768 0.092667788
5.9604645e-08 -0.0047988752 0.0032807738
0 0.047492746 -0.088240892
0 -0.046145108 0.092764243
5.9604645e-08 0.017865874 0.093658671
5.9604645e-08 -0.0035358663 -0.051020607
5.9604645e-08 -0.012830402 -0.089220107
0 -0.005177231 0.02230148
0 -0.0058455095 0.037970334
5.9604645e-08 -0.0041203266 -0.029333875
5.9604645e-08 -0.0036212658 -0.046746328
5.9604645e-08 -0.0049207387 -0.074108094
0 -0.0036818918 -0.042283073
5.9604645e-08 0.0040610819 -0.0079952627
5.9604645e-08 0.01815162 0.081282109
0 -0.0038310571 -0.032011062
0 -0.0029096701 -0.064060465
0 -0.0047722752 -0.0022847354
0 -0.0028357063 -0.089052349
5.9604645e-08 0.0011860649 -0.088828862
5.9604645e-08 0.00035289093 0.062023833
1.1920929e-07 0.0004535513 0.076901585
5.9604645e-08 0.030791484 -0.079057217
5.9604645e-08 0.048521925 -0.085435539
0 -0.035274249 -0.090690494
5.9604645e-08 -0.0026925574 -0.070724294
5.9604645e-08 0.0054533104 -0.056267813
5.9604645e-08 0.035870824 0.093024224
0 0.0037496078 -0.051161095
5.9604645e-08 0.0038248284 0.0061542094
0 -0.0044590491 -0.0069533437
5.9604645e-08 -0.0039677923 -0.025794715
5.9604645e-08 -0.0050967219 0.020231724
0 -0.0050543272 0.062216833
0 -0.026885251 -0.089615807
5.9604645e-08 0.0027992649 -0.0021611303
5.9604645e-08 0.018822759 -0.089419752
5.9604645e-08 0.011771841 0.09347944
5.9604645e-08 0.018934188 -0.077191919
5.9604645e-08 -0.0027977468 -0.06761919
