# .PCD v0.7 - Point Cloud Data file format
VERSION 0.7
FIELDS x y z
SIZE 4 4 4
TYPE F F F
COUNT 1 1 1
WIDTH 1464
HEIGHT 1
VIEWPOINT 0 0 0 1 0 0 0
POINTS 1464
DATA ascii
2.0299718 -0.33035243 0.16913801
2.03035 -0.331049 0.17026454
2.0299299 -0.33215731 0.16989413
2.0299671 -0.33313796 0.17000473
2.0299459 -0.33444217 0.168991
2.0299134 -0.33576554 0.16791403
2.0302188 -0.33665988 0.16834785
2.0298712 -0.33758411 0.16862708
2.0297976 -0.33804923 0.17050689
2.030149 -0.33952251 0.16895103
2.029882 -0.34077996 0.16809314
2.0298049 -0.34090707 0.17112428
2.0302365 -0.34280169 0.16814244
2.0300908 -0.34366527 0.16864513
2.0305376 -0.34478125 0.1683358
2.029768 -0.34623894 0.16676526
2.0304363 -0.34695292 0.16784273
2.0302227 -0.34829035 0.16673078
2.0301065 -0.34906116 0.16755141
2.0297122 -0.34970865 0.16876678
2.0299284 -0.35103306 0.1677382
2.0299649 -0.35211784 0.16750847
2.0300364 -0.35311687 0.16757144
2.0296285 -0.35400748 0.16796364
2.0300074 -0.35465005 0.16924654
2.0300422 -0.35645023 0.16661938
2.0299098 -0.35667828 0.16925119
2.0298374 -0.35749528 0.16991161
2.0298414 -0.35873181 0.16917606
2.0299768 -0.35995811 0.16848747
2.0289884 -0.36111081 0.16796912
2.0296552 -0.36190221 0.16876303
2.0298309 -0.3623701 0.17059883
2.0297949 -0.36433148 0.16746618
2.0299375 -0.36498141 0.16869542
2.0297897 -0.36633971 0.16755955
2.0296502 -0.36681265 0.16934881
2.0301051 -0.36790973 0.16912319
2.0297251 -0.36843419 0.17071719
2.0299108 -0.37021127 0.16823743
2.0299737 -0.3766855 0.15035436
2.0303271 -0.37936559 0.14496826
2.0300295 -0.38052389 0.14452624
2.0299871 -0.3816109 0.14433746
2.0301476 -0.38260269 0.14447449
2.0301874 -0.38355583 0.14472917
2.030226 -0.38449508 0.14502873
2.0301838 -0.38621631 0.14278416
2.0299149 -0.38700649 0.14354809
2.0298615 -0.38775441 0.14446242
2.0302272 -0.38854423 0.14526889
2.0298088 -0.38950172 0.14547716
2.0298765 -0.39091402 0.14425398
2.0298223 -0.39194417 0.14425625
2.029918 -0.39311016 0.14383283
2.029803 -0.39357281 0.14565319
2.030153 -0.39483416 0.14494272
2.0301647 -0.39604086 0.14438613
2.0301976 -0.39754412 0.14288583
2.0297732 -0.39821732 0.144006
2.0304852 -0.39965266 0.14277759
2.0299459 -0.40045983 0.14345911
2.0320284 -0.10879652 0.14432992
2.0317667 -0.10955104 0.14552104
2.0319643 -0.1104 0.14626315
2.0314832 -0.1108848 0.14884968
2.0317609 -0.11176476 0.14942718
2.0306733 -0.1136601 0.16509449
2.0309432 -0.11465006 0.16505441
2.0312922 -0.11563078 0.16507527
2.0310469 -0.11629777 0.16665785
2.0312939 -0.11735252 0.16628228
2.031388 -0.11812979 0.16732679
2.0310276 -0.1190876 0.16738172
2.0315795 -0.12013246 0.167099
2.0311942 -0.12058371 0.16975242
2.0312262 -0.12205787 0.16720417
2.0312696 -0.1232463 0.16613048
2.0312068 -0.12373982 0.16859534
2.0307155 -0.12483474 0.1679409
2.0314779 -0.12576678 0.1682608
2.0311024 -0.12654932 0.16920394
2.0314 -0.12815036 0.1660852
2.0314047 -0.12918666 0.16579615
2.0310757 -0.12994877 0.16685008
2.0305634 -0.13094503 0.16670798
2.0303402 -0.13157381 0.16844222
2.0313206 -0.13309276 0.16584399
2.0308805 -0.13414973 0.16540818
2.031291 -0.1350091 0.16605695
2.0307043 -0.13577075 0.16707651
2.0318141 -0.13661584 0.16787881
2.0308826 -0.13783194 0.16659297
2.0308473 -0.13856338 0.16781799
2.0311613 -0.13952076 0.16796477
2.0310838 -0.13992333 0.17079604
2.0311046 -0.14186268 0.16608468
2.0304451 -0.14284793 0.1659949
2.0310395 -0.14347796 0.16777405
2.03074 -0.14463662 0.16687357
2.0310404 -0.14567833 0.16661248
2.0306537 -0.14656046 0.16705346
2.0308783 -0.14815232 0.16411962
2.0304072 -0.14839613 0.16764557
2.0313368 -0.14947367 0.16728464
2.0309734 -0.15024401 0.16826087
2.0309641 -0.15132749 0.16777056
2.0305026 -0.15256269 0.16650781
2.0305471 -0.15296608 0.16928454
2.0302396 -0.15438876 0.16714929
2.0308523 -0.15531598 0.16747551
2.0309005 -0.15683568 0.16492707
2.0305331 -0.15712918 0.16816635
2.0308022 -0.15813459 0.16808753
2.0311267 -0.15937307 0.16691655
2.0306208 -0.16031177 0.16707343
2.0305107 -0.16086875 0.16907153
2.0308099 -0.16226235 0.16717423
2.0307407 -0.16285753 0.16899042
2.030684 -0.1641375 0.16759691
2.0309069 -0.16477396 0.16924545
2.0303664 -0.16647249 0.16585796
2.0306211 -0.16739845 0.16615912
2.0301487 -0.16859435 0.16513689
2.0299098 -0.16886944 0.16840781
2.0310287 -0.17035851 0.16618715
2.0305588 -0.17073126 0.16896507
2.0305178 -0.17183787 0.16840003
2.0308466 -0.17336486 0.1659447
2.0305433 -0.17419271 0.16664016
2.0308402 -0.17492074 0.16785376
2.0306282 -0.1762643 0.16619733
2.0309136 -0.17713289 0.16676705
2.0308948 -0.1788089 0.16362831
2.0308492 -0.17875797 0.16834311
2.0302119 -0.17939559 0.16985844
2.0303214 -0.1813309 0.16557495
2.0304585 -0.18171348 0.16832063
2.0304282 -0.1829645 0.16712753
2.0301313 -0.18414594 0.16622786
2.0307016 -0.18497755 0.16698609
2.0301154 -0.18549547 0.16903338
2.0306301 -0.18677059 0.16779689
2.0302875 -0.18738566 0.16942598
2.0299799 -0.18805456 0.17081542
2.0299616 -0.1890977 0.170564
2.0305803 -0.18992412 0.17133722
2.0308053 -0.19054466 0.17298488
2.0302076 -0.19199495 0.1882005
2.0297253 -0.1925744 0.18990853
2.0299459 -0.19361325 0.18967323
2.0301063 -0.19430918 0.19092999
2.0298729 -0.19513401 0.19158152
2.0298133 -0.19603127 0.19193456
2.0300243 -0.197367 0.1904128
2.0298388 -0.19779372 0.1927916
2.0300508 -0.19910386 0.19138633
2.0295453 -0.20012012 0.19118373
2.0298209 -0.20113394 0.19106773
2.0290904 -0.20223126 0.19050451
2.0300713 -0.20294811 0.19172826
2.0297513 -0.20420936 0.19049762
2.0294144 -0.20485082 0.19192012
2.0298321 -0.20596293 0.19140168
2.0302124 -0.2069065 0.19160351
2.0299911 -0.20783994 0.19178581
2.029933 -0.20934947 0.18954307
2.0296819 -0.21005297 0.19070169
2.0298281 -0.21094964 0.19107911
2.0293107 -0.21161227 0.19238086
2.0295844 -0.21312806 0.19016056
2.0297713 -0.21400714 0.19061655
2.0298033 -0.21466202 0.19199716
2.0301213 -0.21597108 0.19066493
2.0296943 -0.21699177 0.19046775
2.0297863 -0.21797641 0.19047385
2.0295367 -0.21895345 0.19047995
2.0295141 -0.22016382 0.18953873
2.0295351 -0.22037911 0.19273181
2.0291219 -0.2215472 0.1919326
2.0293448 -0.22295068 0.19021899
2.02911 -0.22384667 0.19056669
2.0294971 -0.22413895 0.19345185
2.0296969 -0.22564803 0.19131278
2.0293653 -0.22673525 0.19086349
2.0297556 -0.2278448 0.19039132
2.0295544 -0.22842547 0.19202845
2.0289998 -0.22911091 0.19320382
2.0293579 -0.2307258 0.19066846
2.029808 -0.2317825 0.1904237
2.0294766 -0.2320329 0.19337972
2.0294311 -0.23349908 0.19142774
2.0292037 -0.23500821 0.18929429
2.0295792 -0.23522685 0.19243096
2.0293958 -0.23661739 0.19078518
2.0293813 -0.23706035 0.19297287
2.0297859 -0.23846048 0.19134948
2.0291028 -0.23915899 0.19244489
2.029696 -0.24103121 0.18895543
2.0293305 -0.24156739 0.19072935
2.0290959 -0.2426779 0.19022112
2.0287967 -0.243384 0.19132099
2.0290856 -0.24456073 0.19059418
2.0296018 -0.24566473 0.19018173
2.0293961 -0.24597147 0.19286406
2.0295162 -0.24692795 0.19299942
2.0293262 -0.24829043 0.19150454
2.029144 -0.24915662 0.19197191
2.0289223 -0.25043672 0.19080867
2.0286138 -0.25118703 0.19172415
2.0292127 -0.25219983 0.19167887
2.0293934 -0.25373533 0.18955864
2.0288203 -0.25413692 0.19181064
2.0290215 -0.25495964 0.19247746
2.0295131 -0.25667459 0.18969741
2.0293546 -0.2573041 0.19108747
2.0292962 -0.25781652 0.1929367
2.0292077 -0.25941187 0.19058482
2.0293665 -0.26047406 0.1903239
2.0297289 -0.26118392 0.19144455
2.0294247 -0.26219565 0.19133613
2.0291572 -0.26263353 0.19344035
2.0293825 -0.26486355 0.1887016
2.0292976 -0.26465312 0.1933057
2.0289369 -0.26658919 0.18965906
2.0292292 -0.26784423 0.18868117
2.0291605 -0.26821613 0.19104476
2.0292466 -0.26889569 0.19224317
2.0292587 -0.27032053 0.19059946
2.0290701 -0.27042392 0.19395807
2.0288444 -0.27227747 0.19067535
2.0285506 -0.27267382 0.1929097
2.0294752 -0.27360886 0.19320345
2.0293977 -0.27494827 0.19188859
2.0289943 -0.27567166 0.1928685
2.0289483 -0.2766692 0.19284746
2.029273 -0.27783883 0.19221342
2.029418 -0.27871585 0.19266319
2.0289884 -0.28027782 0.19050093
2.0286384 -0.28120372 0.19073023
2.0289609 -0.2820234 0.1914074
2.0291522 -0.28248507 0.19340564
2.0286088 -0.28373912 0.19239578
2.0289121 -0.28507286 0.19116192
2.0290802 -0.28596604 0.1915537
2.0288527 -0.28708372 0.19108251
2.0291426 -0.28839698 0.1899347
2.0289073 -0.28832349 0.19385466
2.0288866 -0.28992024 0.19163962
2.0284986 -0.29171568 0.19232956
2.0289164 -0.29629755 0.17924234
2.0296075 -0.30069906 0.16687994
2.029098 -0.30093518 0.16965206
2.0296991 -0.30234596 0.1682294
2.0296803 -0.30338049 0.1681287
2.0297022 -0.30433056 0.1683391
2.0289912 -0.30468988 0.17063001
2.0291417 -0.30659759 0.16738212
2.0291336 -0.30729768 0.16849481
2.0294411 -0.30836174 0.16831727
2.0294104 -0.30905172 0.16946065
2.0291119 -0.31109878 0.16570191
2.0293028 -0.31098601 0.16974521
2.0290012 -0.31189597 0.17007357
2.0293267 -0.31380796 0.16686566
2.0289736 -0.31445801 0.16812317
2.0290256 -0.31615609 0.16567124
2.0294104 -0.3161689 0.16925424
2.0293906 -0.31739831 0.1684698
2.0287592 -0.31861067 0.16770284
2.0288677 -0.31922969 0.16909648
2.0292275 -0.32060358 0.16783574
2.0288372 -0.3213298 0.16881062
2.0291657 -0.3226631 0.16769606
2.0291355 -0.3235279 0.16820826
2.0295482 -0.32457435 0.1681174
2.0290127 -0.32672498 0.16407409
2.0284092 -0.32701492 0.16656739
2.0294592 -0.32701606 0.17018251
2.0291712 -0.32823235 0.16944028
2.029017 -0.3297421 0.16768929
2.0291569 -0.33040634 0.16891198
2.0292163 -0.33142644 0.16888785
2.0292337 -0.33240017 0.16902208
2.0291955 -0.33417809 0.16636385
2.0287936 -0.33456463 0.16850366
2.0294235 -0.33523664 0.16973077
2.0291154 -0.33659688 0.16850463
2.0294001 -0.33829916 0.16615252
2.0289724 -0.33833724 0.16947708
2.0289609 -0.34039441 0.16588925
2.029386 -0.34069312 0.16837911
2.0293715 -0.34209242 0.16705742
2.0289373 -0.34212294 0.17038773
2.029263 -0.34404755 0.16730171
2.0292463 -0.34450138 0.16921294
2.0289731 -0.34644923 0.166013
2.0292873 -0.34728068 0.16666396
2.0287745 -0.34727591 0.17008691
2.0284994 -0.34863073 0.16891383
2.0292225 -0.34970295 0.16877374
2.0291841 -0.35104457 0.16766782
2.0286908 -0.35164449 0.16903321
2.0291097 -0.35268354 0.16898532
2.028723 -0.35331276 0.17025514
2.0287631 -0.35513505 0.16754824
2.0288215 -0.35557911 0.16947207
2.0290911 -0.35706758 0.16791055
2.0290279 -0.35786083 0.16865292
2.028481 -0.35880703 0.16884819
2.0289104 -0.35980958 0.16892625
2.0284405 -0.36120433 0.16763529
2.0285349 -0.36233261 0.16727377
2.0281568 -0.36261478 0.16969016
2.0289624 -0.3645933 0.16656052
2.0288985 -0.36481014 0.16920803
2.0289214 -0.36636296 0.16744189
2.0285058 -0.36659095 0.17001919
2.0293305 -0.36789724 0.16913216
2.0289502 -0.36997354 0.16562113
2.0290806 -0.37481302 0.15645137
2.0292721 -0.37979665 0.14350244
2.0295315 -0.38047481 0.14467408
2.0289381 -0.38160431 0.14430563
2.0289023 -0.38291886 0.14337692
2.0291858 -0.38373005 0.14411196
2.0291944 -0.3848938 0.14368044
2.0291879 -0.38599989 0.14343685
2.0291283 -0.38643545 0.1453637
2.0288222 -0.38768935 0.14462054
2.0290625 -0.38880029 0.14437959
2.0290713 -0.39014915 0.14335661
2.0290205 -0.39051446 0.14550158
2.0291069 -0.39239579 0.14277339
2.0290985 -0.39305255 0.14398097
2.0290475 -0.39385512 0.14471485
2.0290022 -0.39493412 0.1445622
2.0287066 -0.39633074 0.14337794
2.0289907 -0.3973645 0.14339527
2.0289664 -0.39788878 0.14501753
2.028897 -0.39912412 0.14436802
2.0288937 -0.40004748 0.14471763
2.0310581 -0.10877708 0.1443664
2.0308263 -0.10965024 0.14492947
2.0308855 -0.11025721 0.14694086
2.0310104 -0.11101785 0.14813837
2.0308211 -0.11147096 0.15091759
2.0298865 -0.11380331 0.16429856
2.029824 -0.11428884 0.16685612
2.0301378 -0.11526003 0.16691695
2.0303113 -0.11635748 0.16630886
2.0303895 -0.11721473 0.1669381
2.0303681 -0.11778557 0.16903424
2.0298092 -0.11859524 0.16982809
2.0300412 -0.11991741 0.16807105
2.0305007 -0.12104423 0.16735503
2.0301723 -0.12207103 0.16706118
2.0301976 -0.12309483 0.16682734
2.0293522 -0.12384424 0.1679042
2.0302012 -0.12494099 0.1673853
2.0297408 -0.12601215 0.16686068
2.0304406 -0.1273455 0.16513972
2.0299938 -0.12791342 0.16716731
2.0298231 -0.12865816 0.16832788
2.0298903 -0.12976645 0.16767934
2.0297811 -0.13078222 0.1674806
2.0295849 -0.13197817 0.16637194
2.0299883 -0.13287213 0.1668413
2.0303683 -0.13321583 0.17005946
2.030091 -0.13473405 0.16733579
2.0298381 -0.13566291 0.16755942
2.0302167 -0.13678537 0.16689295
2.0298162 -0.13762675 0.16753413
2.0295231 -0.13896032 0.165758
2.0302265 -0.14009313 0.16508366
2.0299733 -0.14024372 0.16914023
2.0299497 -0.1415717 0.16742818
2.0299761 -0.1430366 0.16505918
2.0297701 -0.14380275 0.16609073
2.0296879 -0.14411202 0.1693598
2.0297236 -0.14515914 0.16903794
2.0305018 -0.14627789 0.16845681
2.0301197 -0.14758253 0.16684151
2.0299098 -0.14824206 0.16837652
2.0298929 -0.14922991 0.16834289
2.0302618 -0.15026653 0.16811976
2.0299492 -0.15126656 0.16799571
2.0297356 -0.1523302 0.16758087
2.030021 -0.1534422 0.16699098
2.0299115 -0.15438068 0.16719012
2.0304456 -0.15584648 0.16494986
2.0299675 -0.1564156 0.16686712
2.0296564 -0.15708414 0.16832761
2.0300312 -0.15815584 0.16794693
2.0300958 -0.15953501 0.16608183
2.030082 -0.1603511 0.16687287
2.030133 -0.16146673 0.16625848
2.0297141 -0.16249932 0.16598584
2.0296319 -0.16278262 0.16926539
2.029546 -0.16375731 0.16929717
2.0297635 -0.16480412 0.16902401
2.0298717 -0.16602616 0.16792531
2.029808 -0.16700821 0.16792944
2.0295019 -0.16852583 0.16542402
2.0298588 -0.1693746 0.16609548
2.0300984 -0.16993111 0.1681069
2.0300341 -0.17061792 0.16947562
2.0295429 -0.17191263 0.16799454
2.0294669 -0.17332458 0.16602696
2.029633 -0.1739314 0.16778411
2.0298145 -0.17538832 0.16564673
2.0298464 -0.17622316 0.16634479
2.0298913 -0.17742833 0.16535378
2.0294816 -0.17843339 0.16523089
2.0292478 -0.17926182 0.16593117
2.0300374 -0.18026149 0.16595648
2.0297816 -0.18141246 0.16518925
2.0291936 -0.18206669 0.16663842
2.0296803 -0.1833429 0.16538532
2.0292819 -0.18403143 0.16669412
2.0295687 -0.18477355 0.167825
2.0288792 -0.18510006 0.1707212
2.0291276 -0.18621519 0.17016789
2.0292723 -0.18725629 0.16993949
2.0298033 -0.18830884 0.16970254
2.0289924 -0.18799993 0.17538284
2.0296626 -0.1890474 0.17517313
2.0288954 -0.19116452 0.18744743
2.0286 -0.19178478 0.1890012
2.0292492 -0.19259788 0.18979621
2.0290256 -0.1938397 0.18863001
2.0291846 -0.19441135 0.19043054
2.0287173 -0.19545518 0.19010752
2.0288532 -0.19597051 0.19214076
2.0290918 -0.19759467 0.1893709
2.0287766 -0.19803365 0.19168599
2.02858 -0.19937725 0.19009893
2.0289285 -0.20069407 0.18868452
2.0288177 -0.20121011 0.19067852
2.0288527 -0.20183998 0.1921909
2.0290763 -0.20354952 0.18908894
2.0290074 -0.20430191 0.19006567
2.0286999 -0.20483321 0.19196066
2.0289159 -0.20599051 0.19123138
2.0291517 -0.20716837 0.19042127
2.0286868 -0.2080231 0.19091733
2.029114 -0.20883584 0.19167829
2.0289018 -0.21004491 0.19069649
2.0286379 -0.21093534 0.19106112
2.0288992 -0.2126119 0.18816091
2.0282736 -0.21267721 0.19197045
2.028599 -0.21434285 0.1891304
2.0282404 -0.21478096 0.19138797
2.0287976 -0.21591881 0.19079064
2.0290205 -0.21677928 0.19132744
2.0290885 -0.21815027 0.18971893
2.0289445 -0.21866214 0.19167159
2.0284615 -0.21978462 0.19104986
2.0286639 -0.22043286 0.19246131
2.0283847 -0.22131641 0.19285087
2.0289283 -0.22273847 0.19109072
2.0286357 -0.22413167 0.18937781
2.0291424 -0.22492608 0.19021496
2.0285835 -0.22563565 0.19129373
2.0285451 -0.22619483 0.19303736
2.028331 -0.22746143 0.19186331
2.0289989 -0.22868529 0.19095047
2.0285821 -0.22969435 0.19081502
2.0285742 -0.23059371 0.19116707
2.0285139 -0.23154795 0.19129062
2.028986 -0.23236141 0.19203691
2.0282412 -0.23346436 0.19149354
2.0286441 -0.23428996 0.19217931
2.0279417 -0.23539157 0.19165352
2.0284219 -0.23630741 0.19197822
2.028893 -0.23693992 0.19344755
2.0284026 -0.23855253 0.19088565
2.0284131 -0.23981816 0.18977147
2.0286691 -0.24046367 0.19116567
2.0283515 -0.24148497 0.19100241
2.028549 -0.24221782 0.19203705
2.0280063 -0.24331884 0.19153917
2.0282674 -0.24426168 0.19173989
2.028507 -0.24561991 0.19029285
2.0282557 -0.24639821 0.19110447
2.0282056 -0.24712738 0.19212587
2.0287011 -0.24820596 0.19181478
2.0281758 -0.24913475 0.19200353
2.0284307 -0.24984263 0.19313022
2.0285928 -0.25093573 0.19273449
2.0283377 -0.25220668 0.19160554
2.0284028 -0.25373036 0.18952172
2.0284114 -0.25447673 0.19047603
2.0283651 -0.25540066 0.19073063
2.0283034 -0.25577155 0.19313596
2.028549 -0.25729406 0.19108714
2.028091 -0.25859138 0.18985756
2.0282953 -0.25948155 0.19026585
2.0285246 -0.2600635 0.19186839
2.0285604 -0.26133895 0.19077294
2.0282774 -0.26214314 0.19146852
2.0285971 -0.26337782 0.19056109
2.0283148 -0.26388377 0.19240068
2.0279677 -0.26529881 0.19074686
2.0288723 -0.26566938 0.19320704
2.0273604 -0.26612481 0.19512498
2.0283911 -0.26817584 0.19116224
2.0279186 -0.26923239 0.19087806
2.0281079 -0.2703402 0.19045565
2.028127 -0.27098513 0.19177771
2.0281405 -0.2723901 0.19021705
2.0280786 -0.27294794 0.19185892
2.0277886 -0.27417782 0.19094129
2.0282164 -0.2749531 0.19179814
2.0282223 -0.27596617 0.19172415
2.0280085 -0.27676401 0.19244084
2.0282171 -0.27811971 0.19109935
2.028178 -0.27881026 0.1922323
2.0279732 -0.28014764 0.1909309
2.0281341 -0.28098845 0.19151764
2.0280342 -0.28187376 0.19191563
2.0279031 -0.2829057 0.19176526
2.0276387 -0.28395137 0.19155528
2.0275841 -0.28466195 0.19260487
2.0278826 -0.28626716 0.19036812
2.02776 -0.28681853 0.19200003
2.0279257 -0.28769925 0.19243543
2.0279026 -0.28851011 0.19311227
2.0285237 -0.29043061 0.18976355
2.0281453 -0.29069284 0.19242598
2.0284724 -0.2937707 0.18482344
2.0277257 -0.29266024 0.19248003
2.0282652 -0.29765093 0.17793168
2.0280957 -0.3007299 0.17034648
2.0281518 -0.30274871 0.16666393
2.0280032 -0.30284867 0.16995317
2.0287681 -0.30449587 0.16769049
2.0291314 -0.30606294 0.16569775
2.0287824 -0.30643925 0.16795439
2.0282087 -0.30777171 0.16673486
2.0287094 -0.3085275 0.16768858
2.028604 -0.30948049 0.16787934
2.0280008 -0.31078568 0.16676565
2.0277278 -0.31127053 0.16862822
2.0284026 -0.31245166 0.16806042
2.0284679 -0.31263927 0.17100488
2.028542 -0.31481898 0.1668255
2.0283437 -0.3157599 0.16705526
2.0279624 -0.31698948 0.16624461
2.0285475 -0.31711423 0.16943967
2.0282991 -0.31897423 0.16639969
2.0283852 -0.31932583 0.16874278
2.0283382 -0.32022968 0.16911443
2.0280285 -0.32161859 0.16775167
2.0277276 -0.32179287 0.17067976
2.0279524 -0.32350793 0.16821195
2.0282958 -0.32449028 0.16833869
2.028214 -0.32625207 0.16569665
2.0285912 -0.32698104 0.16672097
2.0282273 -0.32757932 0.16813914
2.0280991 -0.32870251 0.16773929
2.028332 -0.32944101 0.16871178
2.0282874 -0.33119524 0.16612178
2.0277863 -0.33150789 0.16851975
2.0280447 -0.33260062 0.1682588
2.0280204 -0.3340463 0.1667549
2.0281775 -0.3345415 0.16856039
2.0279968 -0.33561948 0.16832069
2.0282428 -0.33658856 0.16849113
2.0275629 -0.33767223 0.1681979
2.0280247 -0.33822444 0.16981706
2.0271885 -0.3391268 0.17013966
2.0281589 -0.34055042 0.16879767
2.0280824 -0.34146518 0.1691301
2.0279698 -0.34188971 0.17113577
2.0275142 -0.34296104 0.17090379
2.0280588 -0.34471604 0.16841415
2.0275261 -0.34511155 0.17048238
2.0280259 -0.34657791 0.16897997
2.0277109 -0.34738913 0.16964667
2.0278926 -0.34872764 0.16856173
2.0278313 -0.34922144 0.17032079
2.0273743 -0.35087049 0.16814613
2.027931 -0.35162371 0.16906951
2.0278239 -0.35255292 0.16935179
2.0277631 -0.35375205 0.16872972
2.0274675 -0.35479686 0.16861226
2.0277576 -0.35601082 0.16796872
2.0279055 -0.35692599 0.16831899
2.0278606 -0.35795835 0.16826306
2.0281725 -0.35929677 0.1672135
2.0284219 -0.35935101 0.17044517
2.0274637 -0.36085036 0.16876377
2.0279741 -0.36172926 0.16925953
2.02774 -0.36185122 0.17221174
2.0283241 -0.36330184 0.17081787
2.0270722 -0.36544633 0.16699789
2.0280957 -0.36653507 0.16683599
2.0276234 -0.36755887 0.16678463
2.0278821 -0.36771265 0.169653
2.0278435 -0.3692922 0.16780305
2.0280066 -0.37049252 0.16721986
2.0271468 -0.37147784 0.1672722
2.0280654 -0.37877139 0.14679407
2.0279777 -0.38034499 0.14500716
2.0279155 -0.38207102 0.14273076
2.0283563 -0.38291329 0.1433772
2.0280838 -0.3838242 0.14374822
2.0284989 -0.38527146 0.14242582
2.0280633 -0.38559291 0.1446989
2.0280569 -0.3871167 0.14310113
2.0280027 -0.38771397 0.14450337
2.0281975 -0.38850504 0.14529355
2.0278471 -0.38940862 0.14568064
2.0284991 -0.39084008 0.14443846
2.027878 -0.39209467 0.14367676
2.0281887 -0.39309394 0.14380494
2.0282211 -0.3940973 0.14390095
2.0281999 -0.3954719 0.14280407
2.0278563 -0.39674667 0.14200799
2.0277781 -0.39679253 0.14515835
2.0279336 -0.39834696 0.14350462
2.0280409 -0.3988561 0.14518227
2.0281162 -0.40054995 0.1430859
2.0301061 -0.1079419 0.14350431
2.0297925 -0.10861744 0.14511447
2.0297797 -0.10942935 0.14602908
2.0295098 -0.11003119 0.14802639
2.0294509 -0.11067812 0.14980079
2.029084 -0.11278304 0.16447648
2.0293968 -0.1137218 0.16471215
2.0289516 -0.1141191 0.16768542
2.0294156 -0.11525582 0.16690174
2.029011 -0.11649514 0.16549022
2.0297019 -0.11666611 0.16975091
2.02929 -0.11814257 0.16710924
2.0289083 -0.11890607 0.16816664
2.0289004 -0.12032019 0.16591397
2.0288491 -0.12115692 0.16663207
2.0291846 -0.12204099 0.16714741
2.029279 -0.12303486 0.16707446
2.0292578 -0.12371124 0.16860902
2.0292356 -0.12500817 0.16697846
2.0293243 -0.12624565 0.16567081
2.0292375 -0.1271638 0.1659677
2.0286942 -0.12785414 0.1673675
2.0290966 -0.12874588 0.16784705
2.0290813 -0.12998141 0.16654997
2.0292778 -0.13064207 0.16817208
2.0286822 -0.13204783 0.16596512
2.0290868 -0.13289914 0.16664931
2.0290205 -0.13379185 0.16707481
2.0296102 -0.13478488 0.1670773
2.0286593 -0.13581592 0.16671357
2.0293968 -0.13634543 0.16902928
2.0285077 -0.13663794 0.17232899
2.0289602 -0.13859946 0.16751799
2.0294042 -0.13990469 0.16596623
2.0294929 -0.14038706 0.16842952
2.0289073 -0.14159316 0.1672515
2.0284021 -0.1426982 0.16659205
2.0294206 -0.14347519 0.16769864
2.0293241 -0.14484663 0.16578141
2.0284526 -0.14536026 0.16796641
2.0293224 -0.14674956 0.16607644
2.0288785 -0.14771423 0.16611029
2.0292401 -0.1482787 0.16817048
2.0287795 -0.14886391 0.17003086
2.028826 -0.15075406 0.16565658
2.0288203 -0.1518517 0.16510403
2.0291326 -0.15270689 0.16575179
2.0286162 -0.15290795 0.16943888
2.029119 -0.15459628 0.16611768
2.0286465 -0.15546995 0.16658939
2.0282552 -0.15661797 0.16576882
2.0286291 -0.15735181 0.16698948
2.0286126 -0.15834627 0.16693513
2.0286224 -0.1593294 0.1669379
2.0291023 -0.16056682 0.16579208
2.0286632 -0.16171545 0.16497192
2.0289276 -0.1622403 0.16716075
2.0285804 -0.16314633 0.16749056
2.0287981 -0.16469985 0.16484842
2.0288286 -0.16492139 0.16841877
2.0287702 -0.16550359 0.17028521
2.0283344 -0.16721216 0.16686961
2.028424 -0.16795243 0.16801371
2.0291507 -0.16926952 0.16655046
2.0290184 -0.17046466 0.16556627
2.0289445 -0.17106445 0.16734058
2.0287561 -0.17212346 0.16698191
2.0284493 -0.17357886 0.16479366
2.0287325 -0.17385165 0.16809651
2.029062 -0.17481771 0.16822213
2.0288556 -0.17637406 0.16559266
2.0289049 -0.1768093 0.16811405
2.029135 -0.17861538 0.16440848
2.0283949 -0.17848994 0.16938663
2.0283213 -0.17969567 0.16838357
2.0286956 -0.18084072 0.16770333
2.0287077 -0.18201882 0.16684173
2.0286655 -0.18292437 0.16720657
2.0287974 -0.18401074 0.16677585
2.0284209 -0.18440266 0.16941206
2.0285327 -0.18519334 0.17030188
2.0283363 -0.18603088 0.1709491
2.0283985 -0.18653259 0.17311807
2.0285323 -0.18725346 0.17431115
2.0292382 -0.18854995 0.1730078
2.0282226 -0.19073839 0.18497659
2.0281434 -0.19099037 0.18817483
2.0280015 -0.19159994 0.18978742
2.028188 -0.19250996 0.19011238
2.0279884 -0.1928201 0.19301851
2.0280259 -0.1938929 0.19261284
2.0277369 -0.19490875 0.19242561
2.0279579 -0.1964958 0.1898078
2.0282323 -0.19679697 0.19278234
2.0273454 -0.19802107 0.19164126
2.0277541 -0.19916306 0.19097872
2.0277863 -0.20014994 0.19095545
2.0279737 -0.20127316 0.19036114
2.0276465 -0.20205998 0.19116589
2.0273654 -0.20274444 0.19241312
2.0278831 -0.20416282 0.19058752
2.0277069 -0.20502016 0.19110234
2.0272856 -0.20610319 0.1906341
2.0271609 -0.20645103 0.19332163
2.0274668 -0.20767398 0.19231984
2.0281889 -0.20934893 0.18944974
2.0278678 -0.20973779 0.19193208
2.02742 -0.21105221 0.19048837
2.0271666 -0.21192215 0.19094402
2.0273368 -0.21279781 0.19140884
2.0276675 -0.21433818 0.18909633
2.0277297 -0.21425802 0.19356357
2.027807 -0.2158936 0.19083697
2.0283022 -0.21651453 0.19240275
2.0277879 -0.21803336 0.19011667
2.0274136 -0.21839562 0.19267148
2.0277069 -0.21961451 0.19171925
2.0276957 -0.22096893 0.19018179
2.0279326 -0.22193427 0.1902847
2.0273185 -0.22223908 0.19303845
2.0276351 -0.22377202 0.19080169
2.0278375 -0.22493131 0.19010299
2.0276098 -0.22569196 0.19100557
2.0272787 -0.22665994 0.19104755
2.0272951 -0.22747716 0.19173726
2.0274081 -0.2285915 0.19121906
2.027859 -0.22970782 0.19072711
2.0280941 -0.23058821 0.19118105
2.0280323 -0.23152265 0.19138436
2.0273223 -0.23221728 0.19250077
2.0273061 -0.23362574 0.19078709
2.0277693 -0.23468079 0.19055192
2.0270789 -0.2355758 0.19086298
2.0277653 -0.23682502 0.18986559
2.0275333 -0.23777393 0.18999967
2.0272095 -0.23818305 0.1922946
2.0275729 -0.23890732 0.19337857
2.0276024 -0.24061123 0.19051073
2.027616 -0.2412083 0.19207326
2.0271449 -0.24216858 0.19214049
2.0276217 -0.24388148 0.18929473
2.0274439 -0.2449384 0.18900892
2.0273697 -0.24517351 0.19199346
2.0273066 -0.24670736 0.18982744
2.027267 -0.24747942 0.19068232
2.0273614 -0.24843639 0.19081686
2.0281901 -0.24942185 0.19091134
2.0272298 -0.25036362 0.19100694
2.0274262 -0.25145698 0.19061559
2.0272038 -0.2521618 0.19171292
2.0271373 -0.25306255 0.19205412
2.027252 -0.25426605 0.19122779
2.0276477 -0.25557569 0.19001672
2.0273101 -0.25569409 0.193381
2.0272081 -0.25641215 0.19442607
2.0271275 -0.25780481 0.19285411
2.0273061 -0.25891516 0.19240294
2.027338 -0.2604146 0.19043772
2.0274284 -0.26150215 0.19007438
2.0272546 -0.26232585 0.1907061
2.0272388 -0.26300344 0.19191197
2.0269752 -0.26424268 0.1909382
2.0272255 -0.26531026 0.19066799
2.0268037 -0.26612702 0.19130503
2.02773 -0.26706856 0.1915769
2.0271523 -0.26797 0.1918703
2.027379 -0.2686165 0.19320527
2.0279262 -0.2705332 0.18974097
2.0270922 -0.27049106 0.19359334
2.0272982 -0.27179277 0.19243708
2.0278172 -0.27271187 0.19276299
2.0272913 -0.27399823 0.19160447
2.026798 -0.27522671 0.19067776
2.0272675 -0.27598318 0.19160824
2.0270064 -0.27761787 0.18917827
2.0267351 -0.27785081 0.19201356
2.0271599 -0.27870244 0.19257897
2.0271363 -0.27968961 0.19260088
2.0274422 -0.28121096 0.19065873
2.0269384 -0.28192124 0.19167577
2.0271258 -0.28250611 0.19321448
2.0271368 -0.28335798 0.19374298
2.0268202 -0.28470963 0.19239125
2.0273247 -0.28546751 0.19330953
2.0272667 -0.28666982 0.19253634
2.027035 -0.28759679 0.19276735
2.0270505 -0.28903133 0.19115002
2.0270126 -0.28971145 0.19230789
2.0270405 -0.29126257 0.19027096
2.0270019 -0.29176277 0.1920871
2.0268295 -0.29406404 0.19094412
2.0270972 -0.29725343 0.18296976
2.027056 -0.30241349 0.1678234
2.0275784 -0.30274525 0.17032066
2.0274467 -0.30431679 0.16825885
2.0274167 -0.30541515 0.16792743
2.0270362 -0.30643621 0.16785076
2.0276186 -0.30747926 0.16777061
2.0278754 -0.30792081 0.1698375
2.0270164 -0.31007549 0.1656374
2.0272601 -0.31052709 0.167661
2.0275383 -0.31164932 0.16727667
2.0272553 -0.31242403 0.16809404
2.027488 -0.31325039 0.16876636
2.0274782 -0.31453881 0.16776721
2.0274348 -0.31500241 0.16971062
2.0275831 -0.31700101 0.16619879
2.0269182 -0.31726488 0.16880128
2.0273917 -0.31831309 0.16870038
2.0273833 -0.31961089 0.16767907
2.0270565 -0.32021266 0.16909947
2.0269828 -0.32142881 0.16836576
2.0276582 -0.32245618 0.16836043
2.0271711 -0.32346755 0.16831766
2.0269969 -0.32463819 0.16774285
2.0274718 -0.32541031 0.16861965
2.0270119 -0.3261672 0.16947401
2.0267265 -0.32752934 0.16822469
2.0267236 -0.32863197 0.16790628
2.0269608 -0.32977942 0.16745
2.0269063 -0.33059213 0.16814098
2.026886 -0.33164039 0.16801386
2.0270984 -0.33260295 0.16820243
2.0275025 -0.33366558 0.16806099
2.0271251 -0.33500117 0.16691276
2.026792 -0.33528283 0.16941701
2.0270627 -0.33651993 0.16866153
2.0270567 -0.33724701 0.16964607
2.0270712 -0.33909804 0.16676305
2.0269997 -0.33994871 0.16731913
2.0268533 -0.33995861 0.17075217
2.0270557 -0.34131691 0.16958389
2.0271194 -0.34326506 0.16639249
2.026865 -0.34356108 0.16882807
2.0269117 -0.34509152 0.16707139
2.0265515 -0.34520718 0.1701071
2.0268447 -0.34705454 0.16729504
2.0265238 -0.34775093 0.16835497
2.0269773 -0.34865046 0.168778
2.0273643 -0.3501229 0.16726087
2.0271041 -0.35033411 0.16995829
2.0266941 -0.35170966 0.16871119
2.0272009 -0.35334668 0.16665584
2.0270042 -0.35372552 0.16878535
2.0271499 -0.35478109 0.16866341
2.027251 -0.35499218 0.17137088
2.0265815 -0.35658255 0.16939443
2.0269492 -0.35795638 0.16822501
2.0266433 -0.35781026 0.17208399
2.0267515 -0.36014587 0.16769163
2.0263221 -0.36132765 0.16711615
2.0265346 -0.36200109 0.16827379
2.026515 -0.3626169 0.16960499
2.0265896 -0.36415067 0.16789824
2.0267823 -0.36514956 0.16797498
2.0266497 -0.36585051 0.16901317
2.0265582 -0.367219 0.16785049
2.0267196 -0.36734879 0.17078851
2.0265398 -0.36917272 0.16812383
2.0268846 -0.37000015 0.16877671
2.0269871 -0.37191576 0.16584338
2.0273201 -0.37698054 0.15262596
2.0275452 -0.380059 0.14593393
2.0266967 -0.38143978 0.14472707
2.0272298 -0.38267267 0.1441021
2.0268342 -0.38391298 0.1433925
2.0273023 -0.38461673 0.14448886
2.0268774 -0.38537365 0.14534776
2.0270021 -0.38663918 0.14459488
2.0274086 -0.38760769 0.14482701
2.0268693 -0.3889356 0.14382979
2.0273826 -0.38998345 0.14381436
2.0270426 -0.39066038 0.1449337
2.0270395 -0.3917135 0.14486437
2.0269301 -0.39296448 0.14415301
2.0270267 -0.39348987 0.14578594
2.0270693 -0.39526802 0.1433982
2.0265601 -0.395915 0.14459985
2.0267241 -0.39715636 0.14394358
2.026794 -0.39814073 0.1441038
2.0270286 -0.399066 0.1444636
2.0273001 -0.40053362 0.14310193
2.0269945 -0.40143338 0.14350665
2.0292082 -0.1080331 0.14295836
2.0286422 -0.1085363 0.14545937
2.0291004 -0.10940894 0.14610656
2.0290284 -0.11005985 0.14786547
2.0285642 -0.11070121 0.14962107
2.0281966 -0.11277759 0.16444772
2.0278854 -0.11343785 0.16606981
2.0284951 -0.11411831 0.16768228
2.0284619 -0.11511073 0.16759244
2.0278018 -0.11613107 0.1672893
2.0284686 -0.11713164 0.16723835
2.0284035 -0.11760381 0.16983852
2.0284486 -0.11911772 0.16706721
2.0280347 -0.11991952 0.16792129
2.0283396 -0.12063165 0.16931511
2.028332 -0.12203907 0.16710523
2.0279462 -0.12286805 0.16782114
2.02788 -0.12396098 0.16722442
2.0279491 -0.12490121 0.16742246
2.0284333 -0.12648319 0.16440825
2.0278897 -0.12690906 0.16715211
2.0286779 -0.12820585 0.16563244
2.0276878 -0.12896229 0.16664423
2.0277381 -0.12993024 0.16670363
2.0281405 -0.13075776 0.16750671
2.0276937 -0.13163085 0.16798903
2.0281351 -0.13278288 0.16716847
2.0281196 -0.13337995 0.1690744
2.0282309 -0.13493869 0.16619687
2.0281847 -0.13594289 0.16607103
2.0281901 -0.13708046 0.16529092
2.0285575 -0.13756706 0.16778037
2.0277753 -0.13905236 0.16519524
2.0277531 -0.13923249 0.16913919
2.0275431 -0.1409152 0.16566104
2.0285408 -0.1418014 0.1662356
2.0284586 -0.14270557 0.16660218
2.0279884 -0.14365888 0.16668399
2.0274901 -0.1447192 0.16624816
2.0279875 -0.14559089 0.16683249
2.0289159 -0.14607026 0.16938518
2.0279622 -0.14783879 0.16544953
2.0278826 -0.14814253 0.16872251
2.0278444 -0.14910683 0.16879964
2.0278883 -0.15019278 0.16830008
2.0278561 -0.15131889 0.16760238
2.0279317 -0.15305398 0.16399944
2.0282512 -0.15338525 0.16715789
2.0278349 -0.15453653 0.16630654
2.0281422 -0.15524401 0.16765386
2.0277669 -0.15677474 0.16500711
2.0276895 -0.15708895 0.16817813
2.0281641 -0.15855639 0.16593349
2.0277722 -0.15954149 0.16588582
2.0276818 -0.16002432 0.16824125
2.0278444 -0.1617218 0.16489586
2.0277481 -0.16229758 0.16680789
2.0277338 -0.16326612 0.16687991
2.0276575 -0.16435713 0.16637327
2.027998 -0.16498706 0.16806577
2.0279734 -0.16620955 0.16695242
2.0278504 -0.16717185 0.16704406
2.0275345 -0.16813157 0.16712919
2.0275304 -0.16907452 0.16732383
2.0280313 -0.17006566 0.16734813
2.0280175 -0.17104845 0.16735823
2.0275142 -0.1722679 0.16622899
2.0280921 -0.17278118 0.16846217
2.027513 -0.17391586 0.16771641
2.0279348 -0.17522803 0.16626586
2.0280521 -0.17617419 0.16646345
2.0274487 -0.1772192 0.16613556
2.0278518 -0.17783728 0.16785432
2.0278711 -0.17897275 0.16717948
2.0278888 -0.1799542 0.1672058
2.0279565 -0.18107247 0.16661945
2.0277884 -0.18241212 0.16501157
2.0276697 -0.18308283 0.16643026
2.0273237 -0.18367937 0.16815606
2.0276415 -0.18477458 0.16770232
2.0276403 -0.18515398 0.17042643
2.0271866 -0.18581432 0.1718408
2.0271556 -0.18671833 0.17220435
2.0263462 -0.18609485 0.17930309
2.027447 -0.18955575 0.18582417
2.0267489 -0.19003649 0.1879591
2.0270066 -0.19058129 0.18989648
2.0269289 -0.19123547 0.19131653
2.0270188 -0.19181915 0.1930567
2.0269232 -0.19302201 0.19206826
2.0265608 -0.1939007 0.19247381
2.0270474 -0.19483104 0.19273204
2.0271082 -0.19623771 0.19088201
2.027113 -0.19668514 0.19319287
2.0267556 -0.19778585 0.19263367
2.0267973 -0.19914514 0.19099902
2.0268245 -0.20013469 0.19096366
2.0267916 -0.2006669 0.19289109
2.0268042 -0.20233575 0.18993536
2.0268962 -0.20292728 0.19161636
2.0272412 -0.20454627 0.18892142
2.0264528 -0.20503977 0.19093594
2.0271218 -0.20576212 0.19210365
2.0274894 -0.20736176 0.18951195
2.0265923 -0.20739545 0.19345336
2.0269611 -0.20880416 0.19167547
2.0270345 -0.20957617 0.1925717
2.0268462 -0.21092361 0.19100952
2.0271752 -0.21188281 0.19114123
2.0264623 -0.21243413 0.19288971
2.0267625 -0.21392363 0.19078612
2.0267627 -0.21487755 0.19090936
2.0272002 -0.21609749 0.18996246
2.0268886 -0.21669765 0.19153494
2.0268507 -0.21760249 0.19185923
2.0267804 -0.217963 0.19444542
2.026536 -0.21945634 0.19230126
2.0264902 -0.22021995 0.1932095
2.0260596 -0.22136612 0.1925009
2.0268748 -0.22303043 0.18975976
2.0268614 -0.22400863 0.18978757
2.0267119 -0.22458094 0.19147426
2.0268288 -0.22578514 0.19058375
2.0263946 -0.22643521 0.1919203
2.0263307 -0.22731902 0.19232903
2.0263667 -0.22846673 0.19166687
2.0265827 -0.22936241 0.19205165
2.0270917 -0.23104641 0.18925492
2.0268955 -0.23160553 0.19097453
2.0258996 -0.23272067 0.19036734
2.0262177 -0.23369873 0.19042613
2.0270402 -0.23502411 0.18913098
2.0266297 -0.23585297 0.18973257
2.0264471 -0.23626751 0.19202474
2.0267897 -0.23743607 0.19132394
2.0265441 -0.23805463 0.19278099
2.0268748 -0.23920231 0.1921663
2.0264194 -0.24003348 0.19274797
2.0267408 -0.24195737 0.18903457
2.0261774 -0.24262035 0.19028473
2.0264268 -0.24345499 0.19091706
2.0264108 -0.24432236 0.19139592
2.026829 -0.24557744 0.19037545
2.0265057 -0.24644096 0.19084182
2.0264499 -0.24695601 0.1927093
2.0265641 -0.24767067 0.19379854
2.0260749 -0.24914193 0.1918529
2.0267305 -0.25010473 0.19201209
2.026036 -0.2512258 0.19143359
2.0261867 -0.25228006 0.19119121
2.0263169 -0.25335255 0.19087791
2.0260193 -0.25340948 0.19449633
2.0268641 -0.25504532 0.1920478
2.0268517 -0.25593618 0.19243157
2.0266268 -0.25763842 0.18964203
2.0262926 -0.2578536 0.19262205
2.0261426 -0.25918993 0.1912688
2.026212 -0.25998521 0.19203004
2.0262165 -0.26134536 0.19060457
2.0265136 -0.26205182 0.19172773
2.0262187 -0.2638385 0.18864311
2.0266812 -0.26391137 0.19221464
2.0257928 -0.26509592 0.19139929
2.02616 -0.26599634 0.19177692
2.0257916 -0.26681545 0.1924074
2.0264473 -0.26773837 0.19272269
2.0261314 -0.26880318 0.19241706
2.0261052 -0.27025422 0.19067056
2.0263708 -0.271 0.19163021
2.0259354 -0.27228907 0.19047183
2.026149 -0.27279639 0.19232623
2.0263016 -0.27406621 0.19129279
2.0260019 -0.27473429 0.1924936
2.0259964 -0.27590469 0.19182545
2.0262868 -0.27706763 0.19121262
2.0262604 -0.2781654 0.19082053
2.0263841 -0.27900749 0.1914006
2.0259821 -0.27983522 0.19198872
2.0263879 -0.2811048 0.19099443
2.0257444 -0.28199869 0.1913176
2.0258405 -0.28279456 0.19206373
2.0261786 -0.28416902 0.19068003
2.025984 -0.28493086 0.19152932
2.0262125 -0.28601131 0.19123186
2.0256686 -0.28707057 0.19095306
2.0259287 -0.28790998 0.19154882
2.0256248 -0.28848055 0.1930906
2.0260861 -0.28923577 0.19400801
2.0260401 -0.29092678 0.19144876
2.0261047 -0.29222497 0.190347
2.0261009 -0.29287887 0.1916011
2.0267203 -0.29498935 0.18758625
2.0260849 -0.29536971 0.18978384
2.0261803 -0.29808578 0.18353456
2.0261455 -0.30254436 0.1709621
2.0264072 -0.30424115 0.16847615
2.0269289 -0.30564353 0.16708989
2.0263247 -0.30611095 0.16899535
2.0266383 -0.3071993 0.16872938
2.0261097 -0.30790338 0.16978273
2.0265269 -0.30910772 0.16910724
2.0263898 -0.31101644 0.16585869
2.0265105 -0.31116071 0.1689743
2.0265479 -0.31292257 0.16627777
2.0261803 -0.31282529 0.17020905
2.0263505 -0.31396195 0.16976377
2.0266576 -0.31535587 0.16841535
2.0266957 -0.31692418 0.1664284
2.0266771 -0.31792206 0.16647168
2.0266514 -0.31853363 0.16788599
2.0259595 -0.31908 0.16947488
2.0265682 -0.320207 0.16910726
2.0256999 -0.32152802 0.16794318
2.0258906 -0.32309437 0.16599646
2.0262797 -0.32433879 0.1652054
2.025902 -0.32377058 0.17073333
2.0262873 -0.32560778 0.16785836
2.026535 -0.32628819 0.1690387
2.0267973 -0.32798547 0.16665985
2.0265188 -0.32917398 0.16602004
2.0261924 -0.33011377 0.16624843
2.0259306 -0.33073625 0.16758846
2.0259778 -0.33162639 0.16801691
2.0261185 -0.33237675 0.16893688
2.0262017 -0.33407822 0.16655344
2.0263846 -0.3354646 0.1652765
2.0259998 -0.33463085 0.1716332
2.0260737 -0.33682588 0.16755453
2.0262964 -0.33772877 0.1679526
2.0259659 -0.33871546 0.16801928
2.0262353 -0.33952233 0.16874969
2.025861 -0.3403098 0.16949657
2.0258846 -0.34168857 0.16824658
2.0261736 -0.34269074 0.1683086
2.0261569 -0.34376368 0.16810648
2.0258241 -0.34430707 0.16968729
2.0254436 -0.34564969 0.168543
2.0257869 -0.34639385 0.16948451
2.0257723 -0.34829172 0.16648549
2.0262873 -0.34891856 0.16784202
2.0262094 -0.35003072 0.16750839
2.0259571 -0.35069463 0.16867751
2.0259831 -0.35187364 0.16812761
2.0257094 -0.35237035 0.16985583
2.0255015 -0.35426748 0.16687657
2.0256047 -0.35496321 0.16796076
2.0256579 -0.35584062 0.16843016
2.0263865 -0.3563346 0.17023459
2.0256777 -0.35785154 0.1685048
2.0259266 -0.35897663 0.16816078
2.0261271 -0.35957831 0.16956024
2.0258439 -0.36064336 0.16937728
2.0260453 -0.36170384 0.16924733
2.0263896 -0.36260915 0.16964602
2.0261359 -0.364402 0.16705486
2.0255029 -0.36499137 0.16842829
2.0257008 -0.36546817 0.17022896
2.0259583 -0.36721015 0.16785762
2.0254672 -0.36794186 0.1687675
2.0260496 -0.36916712 0.16812867
2.0254381 -0.36974227 0.16954155
2.0260253 -0.37243745 0.16408515
2.0259337 -0.37221426 0.1681516
2.0260272 -0.37972161 0.1469482
2.0260699 -0.38177392 0.14361085
2.0260062 -0.38255969 0.14440455
2.0262158 -0.3842276 0.14234452
2.0263932 -0.38462815 0.14440848
2.026485 -0.38531676 0.14552626
2.0262017 -0.38666523 0.14447466
2.025979 -0.38803509 0.1433631
2.0259445 -0.38921911 0.14286906
2.026099 -0.38937482 0.14570761
2.0261023 -0.39079788 0.14444509
2.026088 -0.39247879 0.14235614
2.0262408 -0.39245942 0.14574786
2.0261183 -0.3941752 0.14354436
2.025831 -0.39489526 0.1445266
2.0262702 -0.39602172 0.14425689
2.0262136 -0.39660522 0.14568812
2.0262051 -0.3984209 0.14318909
2.0260422 -0.39883992 0.14513515
2.0262268 -0.3999002 0.14506178
2.0261991 -0.40108091 0.14459135
2.0280004 -0.10792109 0.14346018
2.027874 -0.10839899 0.14614819
2.0278668 -0.10917982 0.14722647
2.0280256 -0.10985349 0.14889036
2.0278511 -0.1108923 0.14857161
2.0267549 -0.11246271 0.16598167
2.0277135 -0.11371099 0.16466686
2.0272334 -0.11427224 0.1667785
2.0274112 -0.11586725 0.16357908
2.0273814 -0.11632603 0.16627087
2.0272386 -0.11723189 0.16662225
2.0269349 -0.11774246 0.16899937
2.0268009 -0.1188863 0.16812003
2.0270998 -0.12008432 0.16701138
2.0273473 -0.1214693 0.16494495
2.0270011 -0.12180792 0.16818362
2.0275414 -0.12344407 0.16487499
2.0273521 -0.12343093 0.16991208
2.0274749 -0.12500483 0.16688587
2.0274062 -0.12580726 0.16776972
2.0274293 -0.12716386 0.16585258
2.0267692 -0.1281378 0.16580561
2.0272939 -0.12883586 0.1672788
2.0272985 -0.12938207 0.16945609
2.0268719 -0.13071969 0.16760124
2.0269096 -0.13176741 0.16725907
2.0266726 -0.13315758 0.16517901
2.0273981 -0.13423386 0.16477565
2.0271418 -0.13412674 0.17016357
2.0269296 -0.13594173 0.16598181
2.0271916 -0.13692752 0.16598217
2.0272036 -0.13708659 0.17004846
2.0272658 -0.13882907 0.16628358
2.0275798 -0.13962618 0.16722526
2.0268745 -0.14087054 0.16584675
2.0269895 -0.1414043 0.1680536
2.0271397 -0.14318387 0.16415584
2.0271449 -0.14409202 0.16451776
2.0268426 -0.14473659 0.16613173
2.0264778 -0.14518932 0.168669
2.02703 -0.14693685 0.16500083
2.0267851 -0.14743656 0.16731404
2.0263617 -0.14812437 0.16869368
2.0265646 -0.14916025 0.16844814
2.026417 -0.14998719 0.16917777
2.0270405 -0.15155812 0.16640666
2.0270476 -0.15262346 0.16601065
2.0273232 -0.15279552 0.16992293
2.0267899 -0.1543351 0.16719851
2.0267422 -0.15495896 0.16890377
2.0263169 -0.15617551 0.167749
2.0268385 -0.1573185 0.16703886
2.0267043 -0.15810563 0.16795428
2.0273004 -0.15959768 0.16561252
2.0272365 -0.16024724 0.16718441
2.0273614 -0.16171685 0.16491127
2.0266697 -0.16194671 0.16838366
2.0268068 -0.1630846 0.16767392
2.0271509 -0.16400176 0.16802385
2.0266933 -0.16508444 0.16751453
2.0270679 -0.16644168 0.16581629
2.0264363 -0.16725773 0.16653986
2.0270648 -0.1679758 0.16784295
2.0270708 -0.16941868 0.16572148
2.0270193 -0.17003477 0.16742527
2.0266922 -0.17081815 0.16832241
2.0270104 -0.17206861 0.16713367
2.0270748 -0.17331959 0.16592164
2.0270164 -0.17381008 0.16818985
2.0266786 -0.17505701 0.16695842
2.0269833 -0.17597613 0.1672969
2.0269625 -0.17726333 0.16592285
2.026485 -0.17757238 0.16895914
2.0265007 -0.17896636 0.16710792
2.0270362 -0.18071027 0.16373171
2.0265329 -0.18128335 0.16555938
2.0272548 -0.18166751 0.16836144
2.0268879 -0.18299656 0.16677861
2.0264757 -0.18352245 0.16881347
2.0267973 -0.18454447 0.16868824
2.0267513 -0.18505269 0.17082885
2.0267081 -0.18584205 0.17170526
2.0273371 -0.18682906 0.17177252
2.0259256 -0.18847366 0.18615699
2.0263233 -0.18901151 0.18814911
2.025872 -0.18974309 0.18919969
2.0262129 -0.19046499 0.19036578
2.0262074 -0.19152103 0.19002983
2.0261331 -0.19214638 0.19157393
2.0261154 -0.19299594 0.19213909
2.0264647 -0.19370604 0.19334932
2.0260923 -0.19517729 0.19116797
2.0260782 -0.19640873 0.19007458
2.0260165 -0.19678876 0.19267237
2.0260105 -0.1979674 0.19181104
2.0257282 -0.19938602 0.18989171
2.0263958 -0.20058925 0.18899947
2.0260339 -0.20097278 0.19153707
2.0256824 -0.20179172 0.19219963
2.0266371 -0.20265575 0.19279663
2.0256279 -0.20382373 0.19189349
2.0255101 -0.2047244 0.19222708
2.0255177 -0.20615976 0.19029215
2.0258415 -0.20671785 0.19212489
2.0254269 -0.20767941 0.19217344
2.0257761 -0.20810977 0.19454069
2.0257823 -0.20991412 0.19105724
2.0254741 -0.21070358 0.19184549
2.0256922 -0.21128732 0.19354443
2.0257392 -0.2133384 0.18904974
2.0256627 -0.21354824 0.19229355
2.0256684 -0.21469586 0.19160259
2.0257163 -0.2157464 0.19132473
2.0257292 -0.21670039 0.19144869
2.0260034 -0.21734285 0.19289665
2.0260642 -0.21898603 0.19015515
2.0251629 -0.21935682 0.19262479
2.0262935 -0.2207938 0.19084734
2.0255296 -0.22083408 0.19468203
2.0255892 -0.22224024 0.19293885
2.0255382 -0.22313692 0.19329381
2.0259819 -0.22437374 0.19229352
2.0255096 -0.22504772 0.19352578
2.0259447 -0.2262181 0.1928018
2.0255084 -0.22740354 0.19193941
2.0258858 -0.22838271 0.19199806
2.0259328 -0.22936212 0.19202651
2.0255022 -0.23086171 0.18989332
2.0258334 -0.23158094 0.19100957
2.0258472 -0.2329008 0.18965681
2.0257413 -0.2339555 0.18937261
2.025666 -0.2342332 0.19223493
2.0253401 -0.2356085 0.19063611
2.0253465 -0.23683983 0.18965241
2.0253243 -0.23711845 0.19250184
2.025764 -0.23878039 0.18982854
2.0257177 -0.23938781 0.19134927
2.0252912 -0.2407285 0.18989898
2.0256021 -0.241638 0.19023955
2.0252738 -0.24283741 0.18936972
2.025624 -0.24308261 0.19235873
2.0252225 -0.24440984 0.19097522
2.0252302 -0.24516298 0.19190858
2.0252638 -0.24663487 0.18999623
2.0256021 -0.2469525 0.19267908
2.0255942 -0.24784552 0.19305368
2.0251951 -0.24913253 0.19184253
2.0259264 -0.25022724 0.19149131
2.025562 -0.25131553 0.19106819
2.0251422 -0.2521179 0.19176614
2.0257211 -0.25324479 0.19127809
2.0255439 -0.25394729 0.19238363
2.0250285 -0.25488994 0.19252318
2.0256972 -0.25626963 0.19106165
2.0254874 -0.25728878 0.19093087
2.0258231 -0.25817093 0.19138229
2.025769 -0.25886843 0.19251187
2.0254416 -0.26005027 0.19174145
2.0248988 -0.26136333 0.19045421
2.0251994 -0.26246494 0.19005316
2.0258918 -0.26329377 0.19074163
2.0248919 -0.26424053 0.19082823
2.0252397 -0.26501709 0.19168019
2.0252903 -0.26579508 0.1925016
2.0256944 -0.26730588 0.19055355
2.0248854 -0.26810107 0.19123784
2.0255384 -0.26897931 0.1917256
2.0253317 -0.26975742 0.19252126
2.0254347 -0.2704964 0.19349039
2.0251076 -0.27189553 0.19192003
2.0250692 -0.2728546 0.19204405
2.0253716 -0.27333316 0.1940102
2.024987 -0.27446666 0.19344541
2.0252984 -0.27588981 0.19185074
2.0250998 -0.27729806 0.19027609
2.0250328 -0.27758169 0.19293509
2.0253434 -0.27874067 0.19234045
2.0245912 -0.27972126 0.19233072
2.0253766 -0.28111425 0.19090267
2.0250165 -0.28231481 0.19010586
2.025605 -0.28315711 0.19072455
2.0248682 -0.28370312 0.19232979
2.025212 -0.28490117 0.19160286
2.0253141 -0.28612876 0.19075081
2.0250764 -0.28685379 0.19173044
2.025599 -0.28789669 0.19160022
2.0252492 -0.2882978 0.19375825
2.0248773 -0.28988141 0.1915631
2.0244501 -0.29105312 0.19088724
2.0250783 -0.29149649 0.19295974
2.0251796 -0.29269487 0.19222625
2.0249929 -0.29504842 0.19089381
2.0250826 -0.29567116 0.19226359
2.025069 -0.29730952 0.18992963
2.0250797 -0.3035571 0.17087969
2.0257511 -0.30517969 0.16870061
2.0247295 -0.30653626 0.16736142
2.0253999 -0.30737314 0.16802803
2.024972 -0.30826241 0.16842489
2.0254638 -0.30945802 0.16778715
2.0250299 -0.3104746 0.16772567
2.0253961 -0.31122866 0.16866738
2.0256221 -0.31290114 0.16630702
2.025068 -0.31298211 0.16958636
2.0253584 -0.31475657 0.16687287
2.0252898 -0.3149533 0.16976719
2.0252879 -0.31584138 0.17019677
2.025481 -0.31719163 0.16899844
2.0255449 -0.31885135 0.16669586
2.0256088 -0.31864145 0.17102678
2.0252926 -0.32068196 0.16735122
2.0252116 -0.32152331 0.16794325
2.0253727 -0.32255718 0.1678738
2.0251715 -0.32341179 0.16840832
2.0251234 -0.32409665 0.1695506
2.0249951 -0.32507649 0.1696485
2.0255532 -0.32678455 0.16724744
2.025357 -0.32779866 0.16722348
2.0254819 -0.32872689 0.16752636
2.0249407 -0.32971507 0.16756816
2.0254419 -0.33073074 0.16759425
2.0256088 -0.33166084 0.16789445
2.025224 -0.3326332 0.16800204
2.0249963 -0.33315191 0.16969691
2.0249779 -0.33403692 0.17013486
2.0252492 -0.33590952 0.16718076
2.025316 -0.33648512 0.16869697
2.024936 -0.33799919 0.1669414
2.0249901 -0.33873513 0.16790129
2.0247571 -0.33948687 0.16878429
2.0252194 -0.34116873 0.16652536
2.0254922 -0.34203163 0.16706684
2.0248113 -0.34239173 0.16925234
2.0245204 -0.34334555 0.1694372
2.0249784 -0.3447592 0.16810568
2.0251386 -0.34595412 0.1675037
2.0250547 -0.34642074 0.16936104
2.0248361 -0.34731919 0.16973835
2.0241857 -0.34842694 0.16938019
2.0249648 -0.35019845 0.16687079
2.0247808 -0.35056788 0.16904168
2.0246661 -0.35166901 0.16874386
2.0246205 -0.35269922 0.16869123
2.0249157 -0.35366771 0.16887051
2.0245953 -0.35459787 0.16913562
2.0251198 -0.35609689 0.16755334
2.0241945 -0.3567605 0.16867296
2.0252197 -0.35817412 0.16741559
2.0249074 -0.35893801 0.16823709
2.0242553 -0.35992914 0.16827999
2.0246892 -0.36112431 0.16771522
2.0246172 -0.36162803 0.16941729
2.0247588 -0.36290148 0.16857602
2.024693 -0.36313498 0.17116858
2.0247374 -0.3650032 0.16835441
2.0252225 -0.36559168 0.16980974
2.0246155 -0.36716527 0.16793053
2.0247078 -0.36777604 0.16927952
2.0247211 -0.36941102 0.16725181
2.0249267 -0.37044451 0.16721949
2.0251782 -0.3708756 0.16916774
2.0246015 -0.37238079 0.16753224
2.0250573 -0.3776361 0.15371756
2.0253453 -0.38191599 0.14311653
2.0248423 -0.38262209 0.14414051
2.0250728 -0.38391665 0.14329658
2.025058 -0.38485759 0.14358859
2.0254107 -0.38517907 0.14591739
2.0246685 -0.3865734 0.14468703
2.0250514 -0.38792968 0.14365934
2.025008 -0.38857073 0.14491852
2.0251997 -0.38971904 0.14455447
2.0249655 -0.39080739 0.14435539
