# .PCD v0.7 - Point Cloud Data file format
VERSION 0.7
FIELDS x y z
SIZE 4 4 4
TYPE F F F
COUNT 1 1 1
WIDTH 673
HEIGHT 1
VIEWPOINT 0 0 0 1 0 0 0
POINTS 673
DATA ascii
0.15784532 -0.0370913 0.90673983
0.15327914 -0.036705691 0.90660179
0.14631923 -0.036288306 0.90568882
0.15478159 -0.036325529 0.90653533
0.078376025 -0.031832509 0.89775914
0.081041306 -0.03147652 0.89826244
0.087418005 -0.031481583 0.89836454
0.014778007 -0.030338747 0.89807647
0.093660474 -0.020926628 0.87961429
0.094053753 -0.020932592 0.87986189
0.094437107 -0.02093631 0.88001513
0.094794534 -0.020934274 0.8799265
0.095578402 -0.020945372 0.88038689
0.1448999 -0.0039437069 0.85287726
0.14696334 -0.0039420188 0.8524543
0.14738113 -0.0039437204 0.85281253
0.14775357 -0.0039442028 0.85290712
0.14293185 -0.0035831463 0.85175812
0.14526419 -0.0035883167 0.8529259
0.14293343 -0.0032280178 0.85176778
0.14347082 -0.0032321555 0.85284859
0.14432089 -0.0032353329 0.85366499
0.1496276 -0.0028724368 0.85141414
0.14995469 -0.002871935 0.85125297
0.15022582 -0.0028703667 0.85077566
0.10500635 -0.0025080193 0.84973413
0.10539629 -0.0025088938 0.85002041
0.10577486 -0.0025094931 0.85021335
0.14942415 -0.002519917 0.85228151
0.15031384 -0.0025170615 0.85127437
0.11737726 -0.0021542113 0.849473
0.10376561 -0.0017964594 0.84828413
0.10431796 -0.0017999118 0.84990144
0.11698667 -0.0017994941 0.84921068
0.11742567 -0.0018008235 0.84982359
0.15034033 -0.001803181 0.84941638
0.11651608 -0.0014440041 0.84836429
0.11688292 -0.0014441927 0.84845781
0.15036796 -0.0014492344 0.84957278
0.074302405 -0.0010859373 0.84709799
0.074648671 -0.0010858555 0.84701997
0.07677307 -0.0010860482 0.84708333
0.077478878 -0.0010860793 0.84707803
0.07894364 -0.0010868742 0.84763813
0.084940746 -0.0010870775 0.84753031
0.10337769 -0.0010888849 0.84800488
0.11606939 -0.00108944 0.84768718
0.11651746 -0.0010903516 0.84837455
0.14146596 -0.0010938093 0.84936303
0.15058014 -0.0010965015 0.85077178
0.071851671 -0.00073300453 0.84734768
0.075345121 -0.00073279958 0.84691054
0.076459885 -0.00073338614 0.84752643
0.07711377 -0.00073292071 0.84694684
0.077833213 -0.00073308212 0.8470912
0.085334733 -0.0007342149 0.84793401
0.10347822 -0.00073612266 0.84882969
0.10994594 -0.00073486287 0.84682912
0.11602393 -0.00073576975 0.84735537
0.11647112 -0.00073638913 0.84803736
0.07359653 -0.00037984972 0.84710288
0.073990874 -0.00038007801 0.84757489
0.080296651 -0.0003801331 0.84699976
0.082702883 -0.00037995976 0.84632713
0.083061822 -0.00038000624 0.84638894
0.085680589 -0.00038079906 0.84785801
0.1034795 -0.00038230643 0.84884036
0.072249413 -2.6782742e-05 0.84787047
0.080316536 -2.7139869e-05 0.84720969
0.08262483 -2.7208825e-05 0.84552854
0.083449163 -2.7283591e-05 0.84673864
0.083844624 -2.7315436e-05 0.84716725
0.10348077 -2.8481507e-05 0.84885103
0.11617367 -2.9320763e-05 0.84844941
0.14470603 -3.1569933e-05 0.84757316
0.07092905 0.00032541365 0.84477353
0.080666825 0.00032591904 0.84717911
0.082265623 0.00032517401 0.84546012
0.11522381 0.00032374662 0.84667212
0.11568622 0.00032402857 0.84747189
0.13677923 0.00032216214 0.84668857
0.035000511 0.0006781696 0.84433234
0.069168985 0.00067754078 0.84478164
0.069515668 0.00067747402 0.8447153
0.080605388 0.00067847705 0.84653401
0.080928162 0.00067820848 0.84621865
0.081274562 0.0006781391 0.84615189
0.081934549 0.00067773007 0.84568137
0.082536899 0.00067685451 0.84462905
0.082840145 0.00067643891 0.84413058
0.10336059 0.00067838875 0.84786552
0.12164374 0.00067662174 0.84709817
0.14371186 0.00067568436 0.8479709
0.14759335 0.00067530654 0.84789819
0.023063591 0.0010312521 0.84521753
0.027970975 0.0010303431 0.84452844
0.032892682 0.0010301179 0.84440988
0.034651402 0.001030072 0.84439838
0.068761304 0.0010287747 0.84409994
0.08126805 0.0010307051 0.84608424
0.081608213 0.0010305309 0.84595376
0.082224831 0.0010293889 0.84504122
0.10929459 0.0010307289 0.84725779
0.11492702 0.0010270064 0.84449172
0.12098794 0.0010272306 0.84498674
0.03180059 0.001380393 0.8434397
0.040226076 0.0013799266 0.84324902
0.066587754 0.0013793194 0.8433091
0.066976659 0.0013800779 0.8437801
0.068800263 0.0013813239 0.84457833
0.10916398 0.0013822573 0.84624547
0.11383564 0.0013786979 0.84423667
0.12098935 0.0013795181 0.84499675
0.031399727 0.0017291169 0.84211409
0.038453203 0.0017306078 0.84289801
0.064483546 0.0017309474 0.8433724
0.064874649 0.0017319933 0.84388721
0.065235853 0.0017322338 0.84400964
0.065915242 0.001731576 0.84369969
0.066243887 0.0017309634 0.84340656
0.06658867 0.0017307765 0.84332085
0.068057023 0.0017323167 0.84409302
0.088665798 0.001735441 0.84598333
0.08888641 0.00173285 0.84472746
0.11373965 0.0017291757 0.84352499
0.11425701 0.0017316638 0.84474814
0.11530749 0.0017315028 0.84469807
0.12107962 0.0017330855 0.84562731
0.036766078 0.0020857716 0.84448242
0.037046421 0.002081746 0.84285492
0.037350632 0.0020791243 0.84179586
0.03769844 0.0020789555 0.84173
0.038079727 0.0020806189 0.84240592
0.063773334 0.0020821893 0.84327787
0.064134136 0.002082482 0.84340042
0.064462282 0.0020817164 0.84309447
0.088495851 0.0020840343 0.84436196
0.10792185 0.0020842929 0.84481251
0.10868711 0.002085418 0.8452825
0.10905346 0.0020856634 0.84538895
0.021928756 0.0024312763 0.84220803
0.028968126 0.0024329841 0.84282762
0.059765391 0.0024279463 0.84128314
0.060807627 0.0024275337 0.84114933
0.062706128 0.0024331368 0.84310645
0.063079603 0.0024339792 0.84340149
0.11195985 0.0024321019 0.84337288
0.1201576 0.0024338171 0.84410793
0.1205897 0.0024354123 0.84466755
0.011069474 0.0027869106 0.84360909
0.016677046 0.0027841986 0.84279996
0.022286497 0.0027830482 0.84246683
0.028639324 0.0027863474 0.84348649
0.028970346 0.0027843805 0.84289235
0.0443753 0.002781111 0.84197176
0.05836774 0.0027787872 0.84135348
0.059429601 0.0027792254 0.84149343
0.06080848 0.0027780954 0.84116125
0.061601367 0.002782221 0.84241539
0.062015682 0.0027850508 0.84327477
0.062703796 0.0027843746 0.84307516
0.12001161 0.0027823348 0.84308243
0.12031606 0.0027812235 0.84275091
0.011036661 0.0031291093 0.84110856
0.016291706 0.0031287987 0.84103459
0.045383677 0.0031288881 0.84115279
0.057944696 0.0031254936 0.84030384
0.088010527 0.0031350579 0.84308594
0.011360704 0.0034715037 0.83915961
0.016291967 0.003479284 0.84104818
0.04508806 0.0034836361 0.84217829
0.057907697 0.00347344 0.8397674
0.12010223 0.0034777068 0.84125334
0.12060518 0.003482078 0.84231442
0.011353954 0.0038188808 0.83866113
0.11987672 0.0038212314 0.83967394
0.12025726 0.0038221765 0.83988464
0.011354138 0.0041683884 0.8386749
0.12011842 0.0041675027 0.83891505
0.011354322 0.0045179068 0.83868861
0.085707463 0.0045304052 0.8411842
0.010289911 0.0048597399 0.8373751
0.010644648 0.0048624156 0.83783644
0.12165269 0.0048723067 0.83984071
0.12187324 0.0048671081 0.83894652
0.12212017 0.0048629893 0.83823848
0.0099404678 0.0052083479 0.83732736
0.041723512 0.0052125552 0.8380391
0.042371478 0.0052063493 0.83704233
0.053901158 0.005208049 0.83733338
0.054262348 0.0052092187 0.83752209
0.087961808 0.0052196183 0.83926737
0.1223614 0.0052078227 0.83749557
0.0095900036 0.0055563012 0.83718699
0.042721588 0.0055553024 0.8370682
0.043037571 0.0055510658 0.83643019
0.052169655 0.0055584009 0.83754671
0.052823804 0.005553775 0.83685058
0.053916998 0.005558603 0.83757949
0.05493293 0.0055554314 0.83710301
0.087657727 0.0055723353 0.8397069
0.087891467 0.0055649602 0.83859628
0.088127673 0.0055577983 0.83751786
0.08977595 0.0055517168 0.83660537
0.009241974 0.0059056189 0.83725667
0.044736225 0.0058937781 0.83560705
0.05077054 0.0059070745 0.83749801
0.055312265 0.0059075095 0.83756435
0.05562957 0.0059041358 0.83708644
0.06122217 0.0059051076 0.83723044
0.088213988 0.0059126504 0.8383382
0.0884021 0.0059018666 0.83680975
0.0092342859 0.0062492709 0.83656037
0.044695146 0.0062362356 0.83483982
0.047160916 0.0062402631 0.83538073
0.049703579 0.0062535596 0.83716255
0.050058309 0.0062542893 0.83726054
0.050414741 0.0062552197 0.83738536
0.056703746 0.0062559922 0.83749366
0.057039771 0.0062545626 0.83730263
0.057409763 0.0062568523 0.83760941
0.061917055 0.0062536877 0.83718956
0.062203217 0.0062473803 0.83634549
0.1143239 0.0062554153 0.8374939
0.0088766515 0.0065910807 0.83570379
0.029085463 0.0065941638 0.83610678
0.047510382 0.0065885461 0.8354044
0.047872566 0.0065904791 0.83564967
0.048235379 0.0065924698 0.83590233
0.048887152 0.0065864162 0.8351351
0.049259078 0.006589612 0.83554047
0.049593221 0.0065877438 0.83530378
0.06118279 0.0065986402 0.83669192
0.061917912 0.0066026533 0.83720118
0.062204078 0.0065959948 0.83635712
0.062497448 0.0065901699 0.83561867
0.0088767959 0.0069394014 0.83571756
0.028382357 0.0069409912 0.83591926
0.028731046 0.0069410866 0.83593088
0.029769853 0.0069396654 0.83576018
0.032230619 0.0069446485 0.83636141
0.045109462 0.0069421972 0.83607113
0.061155975 0.0069442615 0.83632529
0.062204938 0.0069446187 0.83636868
0.062474828 0.0069358791 0.8353163
0.089938857 0.0069321455 0.83487928
0.11529364 0.0069489302 0.83692402
0.0085217636 0.0072817663 0.83504677
0.0088843293 0.0072938004 0.83642703
0.027285548 0.0072754468 0.83433086
0.028340871 0.0072786398 0.83469743
0.029777994 0.0072898967 0.83598876
0.030806791 0.007286069 0.83555019
0.031517964 0.0072895112 0.83594513
0.032550223 0.0072866739 0.83562005
0.03284625 0.0072751222 0.83429551
0.044620175 0.007267633 0.83343953
0.061151601 0.0072922525 0.8362655
0.062499173 0.0072868122 0.8356418
0.1156065 0.0072955294 0.83666116
0.11625113 0.0072921659 0.83627605
0.116514 0.0072867814 0.83565885
0.11679193 0.0072823684 0.8351531
0.0088660177 0.0076265582 0.83470321
0.026576925 0.0076192557 0.8339113
0.027305385 0.0076286304 0.83493751
0.02764808 0.0076271999 0.83478105
0.030454898 0.0076332809 0.83544731
0.03115605 0.0076344945 0.83558023
0.061116248 0.0076363231 0.83578199
0.062067829 0.0076248404 0.83452517
0.062379919 0.0076204743 0.83404732
0.0088561121 0.0079654399 0.83377081
0.061091974 0.0079814382 0.83545005
0.062331859 0.0079619018 0.83340472
0.090228476 0.0079708919 0.83433807
0.090504952 0.0079646055 0.83367997
0.11852924 0.007978349 0.8351177
0.11883523 0.0079754973 0.83481938
0.1192025 0.0079767639 0.834952
0.11989854 0.0079767117 0.83494675
0.12026615 0.0079779858 0.83508021
0.12064581 0.0079800477 0.83529621
0.12139512 0.0079834787 0.83565557
0.0088448804 0.0083023002 0.83271354
0.025145669 0.0083005019 0.83253849
0.025511777 0.0083067641 0.83316666
0.025907138 0.0083222548 0.83472043
0.033544868 0.0083188489 0.83437937
0.033892293 0.0083187921 0.83437359
0.061025329 0.0083204992 0.83453864
0.061294191 0.0083097946 0.83346486
0.0622564 0.0082991403 0.83239579
0.090229608 0.0083187427 0.8343485
0.090506084 0.0083121825 0.83369035
0.0088491822 0.0086534694 0.83311868
0.009187609 0.0086453054 0.83233285
0.025114182 0.0086365668 0.831496
0.025540495 0.0086636608 0.83410454
0.061013132 0.0086665349 0.83437181
0.061338898 0.0086634299 0.83407271
0.061583295 0.008648932 0.83267677
0.06220739 0.0086392118 0.8317405
0.090230733 0.0086666029 0.83435893
0.090335131 0.008643304 0.83211559
0.11009307 0.0086414646 0.83192611
0.0088461265 0.0089974934 0.8328312
0.009187758 0.0089922557 0.8323465
0.0098759728 0.0089873876 0.83189619
0.025092864 0.0089754006 0.83079022
0.025481172 0.0089902757 0.83216715
0.034871768 0.0089977365 0.83285689
0.06130049 0.0090053622 0.83355045
0.061528422 0.0089879101 0.83193475
0.071706571 0.0090032658 0.83334845
0.072012357 0.0089980699 0.83286721
0.072602272 0.0089851459 0.8316704
0.072961964 0.0089867497 0.83181846
0.090121254 0.0090034222 0.83334661
0.10611411 0.0089745782 0.83066261
0.010893175 0.009314701 0.83017588
0.025100717 0.0093244826 0.83105022
0.034891687 0.0093501071 0.83333266
0.061290905 0.0093512563 0.83342004
0.061535656 0.009335692 0.83203256
0.069950275 0.0093479529 0.83311784
0.070298187 0.0093480404 0.83312529
0.071305119 0.0093434704 0.832717
0.072346263 0.00934345 0.83271414
0.073317133 0.0093344813 0.83191383
0.073656924 0.0093335956 0.83183455
0.076577738 0.0093515245 0.83342957
0.090058379 0.0093442323 0.83276516
0.090337381 0.0093371803 0.83213633
0.090595424 0.0093280245 0.83131993
0.091665432 0.0093310894 0.83159196
0.091934152 0.0093231769 0.83088636
0.092536017 0.0093140118 0.83006889
0.10609373 0.0093190474 0.83050305
0.10755561 0.0093256608 0.83109099
0.0091900909 0.0096883345 0.83255816
0.010219494 0.0096777221 0.83164656
0.011609597 0.0096811755 0.83194387
0.024351167 0.0096481545 0.82910806
0.024748959 0.0096686045 0.83086544
0.035168573 0.009677982 0.83166915
0.062290713 0.009691989 0.83285445
0.063271657 0.0096827466 0.83205914
0.065155096 0.0096535152 0.82954514
0.070181213 0.0096791042 0.83173895
0.075153947 0.009694458 0.83305281
0.07669688 0.0096700788 0.8309558
0.076931544 0.0096560558 0.82975042
0.092840113 0.0096556162 0.82969284
-0.087153293 0.010022572 0.83133227
0.01158427 0.010005942 0.83012903
0.024365479 0.0099994913 0.82959533
0.024778081 0.010026584 0.83184308
0.034831811 0.010027331 0.8319025
0.03514633 0.01001818 0.83114308
0.035482217 0.010015238 0.83089888
0.035803411 0.010008245 0.83031857
0.060832199 0.010027504 0.83189732
0.063245662 0.010025364 0.83171719
0.063570462 0.010021922 0.83143127
0.063828014 0.010007971 0.83027351
0.064141005 0.010002818 0.82984561
0.064809874 0.009999291 0.82955223
0.067615464 0.01000515 0.83003503
0.070139028 0.010019697 0.83123899
0.07639569 0.010022314 0.83144814
0.076938316 0.010002741 0.82982343
0.077975236 0.010002634 0.82981312
0.092442602 0.00999586 0.82923079
0.10568746 0.010005764 0.83003312
0.11250517 0.0099963136 0.82923937
0.11387677 0.0099952584 0.82914996
0.11422574 0.0099955294 0.82917196
-0.087103777 0.010363218 0.83085984
0.01120931 0.010325021 0.82797939
0.011584457 0.010351994 0.8301425
0.024401249 0.010360345 0.83081323
0.024723705 0.010350424 0.83001757
0.037498925 0.010344751 0.82955819
0.060736541 0.010357858 0.83058912
0.06663207 0.010359522 0.83071536
0.066953421 0.010355673 0.83040625
0.06804049 0.010363097 0.83100033
0.070192546 0.010374016 0.83187312
0.092443742 0.010341614 0.82924098
0.11121538 0.010350724 0.82994109
0.11224724 0.010350109 0.82989019
0.11250646 0.010342118 0.82924891
-0.087054573 0.01070351 0.83039039
0.024342559 0.010680768 0.82881492
0.024703525 0.010687537 0.8293401
0.036043569 0.010668879 0.82788801
0.036743477 0.010671782 0.8281129
0.037131302 0.010684091 0.82906783
0.037528567 0.010698863 0.8302139
0.060326517 0.010692659 0.82971102
0.069787823 0.01071179 0.83118284
0.076970167 0.010698838 0.83016676
0.079640374 0.010685657 0.82913959
0.011912341 0.011027134 0.82889163
0.017470477 0.011047768 0.83044356
0.035313614 0.011001366 0.82695049
0.037112433 0.011023942 0.82864648
0.059852015 0.011014726 0.82793081
0.060650598 0.011034466 0.82941365
0.080132797 0.011051457 0.83066052
0.093449503 0.011029158 0.82895958
0.011548568 0.011354384 0.82757097
0.030159302 0.011351219 0.82733822
0.059915159 0.011371724 0.82880419
0.060274865 0.011374423 0.82900047
0.079981372 0.011376111 0.82909077
0.092879117 0.011389494 0.83004105
0.093677253 0.011360377 0.82791698
0.094695978 0.011358354 0.82776743
0.095773935 0.0113634 0.82813305
0.096110441 0.011362361 0.82805657
0.10428856 0.011388183 0.82992178
0.011539764 0.011690286 0.82694012
0.011891413 0.01169729 0.82743561
0.023947554 0.011692532 0.82709879
0.059868205 0.011707919 0.82815462
0.0799824 0.011721798 0.82910132
0.011215311 0.012056426 0.82842302
0.011538543 0.012033571 0.82685268
0.011895191 0.01204588 0.82769859
0.023958556 0.01204269 0.82747883
0.030497208 0.012037992 0.82715327
0.059130087 0.012043278 0.8274858
0.080680259 0.012068333 0.82916802
0.10410827 0.012059189 0.82848692
0.10451218 0.012065936 0.82894957
0.011549127 0.012389448 0.82761127
0.011879143 0.012374038 0.82658195
0.023595791 0.01237803 0.82684797
0.02396957 0.01239317 0.82785916
0.030483225 0.012376969 0.826774
0.059160903 0.01239456 0.82791686
0.080462277 0.012380363 0.82692766
0.080857873 0.012388161 0.82744777
0.011529742 0.012712911 0.82622212
0.02359229 0.012720664 0.82672518
0.03049814 0.012727688 0.82717842
0.057705022 0.012722855 0.82683307
0.058050081 0.012722963 0.82683945
0.059122801 0.012731361 0.82738358
0.080385208 0.012712812 0.82613552
0.080916554 0.012742257 0.82804817
0.10368738 0.012740619 0.82788551
0.1167853 0.012738239 0.82769644
0.011519366 0.01304542 0.82547873
0.011843829 0.013024025 0.82412493
0.02356212 0.013048428 0.82566792
0.030819125 0.013062324 0.82654357
0.057273351 0.013047564 0.82557786
0.057670828 0.013059664 0.82634294
0.079589993 0.013039673 0.82503319
0.079950728 0.013042418 0.8252061
0.080480449 0.013072589 0.82711422
0.080859937 0.013078204 0.82746863
0.10400648 0.013082428 0.82767653
0.10463807 0.013075097 0.82721078
0.011507418 0.013375483 0.82462257
0.011835281 0.013357762 0.82353014
0.023241773 0.013406105 0.82650936
0.023528591 0.013373401 0.82449299
0.030800095 0.013398445 0.82603306
0.056266297 0.01339756 0.8259474
0.057655837 0.013400529 0.82612801
0.079170272 0.013370713 0.82424444
0.079591013 0.01338369 0.82504362
0.099540196 0.013383758 0.82499558
0.0094350288 0.013703092 0.82366145
0.010806977 0.013702196 0.82360792
0.011482474 0.013689338 0.82283521
0.011836741 0.01370259 0.82363176
0.032519232 0.013741911 0.82598829
0.053401999 0.013713287 0.82424176
0.077767782 0.013709253 0.82394862
0.07883963 0.013716479 0.82438034
0.079171285 0.013714405 0.82425487
0.080388285 0.013746259 0.82616675
0.11694518 0.013751612 0.82638544
0.0087550245 0.014056437 0.8242566
0.021441149 0.014043227 0.82348168
0.022121284 0.014039387 0.82325625
0.022501152 0.014062427 0.82460713
0.022847388 0.014064072 0.82470351
0.052466065 0.01408211 0.82573014
0.052783471 0.014074995 0.82531238
0.053366255 0.014047345 0.82368994
0.054812528 0.014066158 0.8247906
0.055524994 0.014072509 0.82516181
0.056252643 0.014082504 0.82574666
0.072821654 0.014026036 0.82240021
0.077625819 0.01402699 0.82244438
0.079191417 0.0140615 0.82446432
0.10478839 0.014083392 0.8256759
0.10627856 0.014052808 0.82387769
0.11517252 0.014090081 0.82603645
0.11546549 0.014083795 0.82566684
0.1156372 0.0140628 0.82443494
0.0080707734 0.014404469 0.82451928
0.021082753 0.014375912 0.82288444
0.021434609 0.014381959 0.82323045
0.053109493 0.014414052 0.82503372
0.05414037 0.014413913 0.82502395
0.055183277 0.014416921 0.8251943
0.072784565 0.014361451 0.82198113
0.077380113 0.014387808 0.82347846
0.078512646 0.014406675 0.82455564
0.098653093 0.014386357 0.82333511
0.099170186 0.014411615 0.82477963
0.10537596 0.014413755 0.82488298
0.10652234 0.014382772 0.82310557
0.10683822 0.014379091 0.8228938
0.10713534 0.014372917 0.82253939
0.007726897 0.014747346 0.82448149
0.021076076 0.014714121 0.82262373
0.053397205 0.014742362 0.82416725
0.07740096 0.01473497 0.82370013
0.099126138 0.014748852 0.82441312
0.10562884 0.014744893 0.82417113
0.1149141 0.014745639 0.82418269
0.11528082 0.014748582 0.82434607
0.0070273853 0.015064087 0.82301742
0.0073727169 0.015069066 0.82328957
0.020733679 0.015057129 0.8226372
0.021065842 0.015049573 0.82222426
0.033112172 0.015075176 0.82361519
0.10624436 0.015078257 0.82361209
0.11365286 0.015058739 0.82252085
0.11414425 0.015078339 0.82359022
0.11450122 0.015080117 0.82368618
0.11491539 0.015089396 0.82419187
0.0070298058 0.015412324 0.82330114
0.021393104 0.015381162 0.82163608
0.02172059 0.015370661 0.82107502
0.022054881 0.015365227 0.82078463
0.033421092 0.015402577 0.82277173
0.037204392 0.015407692 0.8230409
0.037547331 0.015407696 0.82304072
0.050525222 0.0153913 0.8221457
0.050888665 0.015397611 0.82248217
0.072825462 0.015397779 0.82244247
0.073059037 0.015374796 0.82121408
0.097663715 0.0154223 0.82367891
0.097956598 0.01541435 0.82325321
0.11300812 0.015407259 0.82282364
0.006682829 0.015746035 0.82281339
0.021701422 0.015698913 0.82035035
0.037524607 0.01574111 0.82254243
0.047107674 0.015736653 0.82229578
0.047479179 0.015746227 0.82279545
0.049088154 0.015712529 0.82103175
0.050915889 0.015748762 0.82292199
0.073269725 0.015688863 0.81974083
0.073694788 0.01570664 0.8206687
0.097092912 0.01572879 0.82175529
0.0973107 0.01570864 0.82070148
0.1130094 0.015750451 0.82283276
0.022017084 0.016021715 0.81937778
0.036139835 0.016077671 0.8222279
0.03783717 0.016071038 0.82188672
0.038165029 0.016064897 0.82157218
0.039908219 0.016077625 0.8222208
0.073333383 0.016044417 0.82045281
0.11286705 0.016073199 0.82179618
0.0063296864 0.016404953 0.821473
0.022046374 0.016384894 0.82046771
0.038863875 0.016413232 0.82187152
0.039195262 0.016408604 0.8216393
0.040203057 0.016400751 0.8212446
0.04187033 0.016383667 0.82038671
0.042895012 0.016383354 0.82036954
0.043635037 0.016404547 0.82142961
0.046026483 0.016402958 0.82134628
0.047069523 0.016408648 0.82162946
0.073271632 0.016372545 0.81976175
0.11169311 0.016394377 0.82072794
0.11281772 0.016408611 0.82143676
0.0063262465 0.016738139 0.82102686
0.0066597783 0.016716717 0.81997615
0.022046721 0.016727023 0.82048047
0.045338426 0.016743889 0.82128245
0.073209986 0.016700119 0.81907183
0.11179822 0.016752265 0.82150012
0.0063183554 0.017058939 0.82000303
0.02200626 0.017037569 0.81897455
0.07311105 0.017018439 0.81796473
0.097575612 0.017063478 0.8200503
0.11119299 0.017054439 0.81956524
0.11170943 0.017081149 0.82084751
0.0066538844 0.01738465 0.81925106
0.1107918 0.017386762 0.8191269
0.0066558975 0.017731378 0.81949919
0.072723225 0.017688802 0.81743783
0.093028568 0.017727537 0.81916165
0.094440334 0.017736141 0.81955421
0.11039468 0.017719314 0.81871593
0.0069923368 0.018059954 0.81891501
0.020641223 0.018061144 0.81896788
0.066190489 0.018013185 0.81671774
0.06894327 0.018020986 0.81706393
0.072355613 0.018022764 0.81713456
0.072630309 0.018006433 0.8163932
0.091972113 0.018062687 0.8188802
0.092302069 0.018060455 0.81877774
0.0066455971 0.018385818 0.81823152
0.020283442 0.018387368 0.81829953
0.072770454 0.018382069 0.81796825
0.091973223 0.018404223 0.8188898
0.0062923883 0.018690208 0.81663465
0.0066411612 0.01871426 0.81768572
0.019572381 0.018700436 0.81708091
0.02027576 0.018721238 0.81798953
0.072574511 0.018672545 0.8157655
0.091447182 0.01870776 0.81724042
0.0066318261 0.019028191 0.81653666
0.016844744 0.019036107 0.81687647
0.017870532 0.01904119 0.81709427
0.01854221 0.019031761 0.81668949
0.019226039 0.019035034 0.81682956
0.090799451 0.019055443 0.81754529
0.10411762 0.019060254 0.81770003
0.00628909 0.019360611 0.81620729
0.0066333041 0.019372743 0.81671888
0.01682907 0.019358447 0.81611627
0.017177217 0.019367605 0.81650227
0.019492621 0.019302364 0.81375092
0.088691965 0.019382492 0.81697494
0.089017317 0.019379184 0.81683421
0.089329705 0.019373089 0.81657606
0.090085633 0.019389262 0.81725526
0.0062876944 0.01969634 0.81602651
0.017151847 0.019678716 0.81529635
0.017473636 0.019658584 0.81446218
0.072948314 0.019701591 0.81614196
0.086865284 0.019694902 0.81581688
0.087170541 0.019687042 0.81549007
0.087907441 0.019699827 0.81601709
0.0886463 0.019712849 0.81655401
0.0062860735 0.020031203 0.81581652
0.07321997 0.020022992 0.81537789
0.01982823 0.020316055 0.8136096
0.074242011 0.020363508 0.81540245
0.08304254 0.020354811 0.8150236
0.083417319 0.020363372 0.8153652
0.086137719 0.020363733 0.81536961
0.0072958297 0.02068291 0.81470782
0.075229019 0.02069439 0.81504655
0.0076292814 0.02100591 0.81406957
0.0079633156 0.020992374 0.81354505
-0.03805685 0.021287261 0.81178862
0.0082957149 0.02131453 0.81290323
0.0133661 0.021298796 0.81230336
-0.03770861 0.02161983 0.81157476
-0.037351917 0.021609128 0.81117404
0.013705887 0.021639397 0.81238335
0.014386281 0.021644603 0.81257868
-0.038416687 0.021976143 0.81224209
0.010662575 0.021983875 0.81260431
0.010990376 0.021962373 0.81180954
0.014045516 0.021979718 0.81245041
-0.030177254 0.022566201 0.80914879
-0.04166219 0.022914946 0.80952358
-0.030181089 0.023243483 0.80925024
-0.030508814 0.023910463 0.8089965
