# .PCD v0.7 - Point Cloud Data file format
VERSION 0.7
FIELDS x y z
SIZE 4 4 4
TYPE F F F
COUNT 1 1 1
WIDTH 389
HEIGHT 1
VIEWPOINT 0 0 0 1 0 0 0
POINTS 389
DATA ascii
0.15503199 -0.036673434 0.90578616
0.15191112 -0.036271635 0.90521681
0.15314627 -0.036296133 0.90581679
0.14046381 -0.03586125 0.90449899
0.14536364 -0.035861138 0.90444863
0.14617978 -0.035876419 0.90482664
0.14685893 -0.035858095 0.90435708
0.14951536 -0.03586245 0.90444082
0.13056062 -0.035456367 0.90388554
0.14378797 -0.035467234 0.90403718
0.14411397 -0.03545475 0.90371519
0.14489965 -0.035462689 0.90391016
0.15982524 -0.03551485 0.90509218
0.16017172 -0.035508037 0.90491462
0.12113658 -0.035077568 0.90392172
0.12853429 -0.035040542 0.90289998
0.12974666 -0.035063125 0.90347147
0.13056232 -0.035079956 0.90389818
0.13091664 -0.035073966 0.90374035
0.13311718 -0.035058383 0.90331775
0.13574168 -0.035055641 0.90322226
0.13612778 -0.035058141 0.90328306
0.13772061 -0.035080325 0.90384024
0.14109926 -0.035077501 0.90373492
0.14450333 -0.035081003 0.90379202
0.14753862 -0.035086248 0.9038974
0.16024774 -0.035064761 0.9032144
0.11868957 -0.034646165 0.90252143
0.11903902 -0.034638412 0.90231615
0.1205704 -0.034646265 0.90250754
0.12104438 -0.034674302 0.9032346
0.12140574 -0.03467001 0.90311944
0.12218796 -0.034678392 0.9033311
0.12247021 -0.034651738 0.90263349
0.12430966 -0.034640234 0.90231699
0.1262199 -0.034648512 0.90251565
0.13224506 -0.034650508 0.90251207
0.15981424 -0.034675699 0.9028967
0.11255334 -0.034233846 0.90162408
0.11336195 -0.034251124 0.90207285
0.11747385 -0.034244418 0.90186095
0.11825953 -0.034254279 0.90211409
0.1211125 -0.034317043 0.90374398
0.12312659 -0.034248743 0.90192515
0.12502687 -0.034254499 0.90205985
0.14159788 -0.034353431 0.90451235
0.14506498 -0.0343711 0.90494418
0.090272807 -0.033816092 0.90068048
0.093656667 -0.033818327 0.90071607
0.094129473 -0.033853389 0.90164721
0.10117066 -0.033820935 0.90072942
0.10160056 -0.033839107 0.90121055
0.10306419 -0.033826478 0.90086251
0.10342466 -0.033821598 0.9007296
0.10418953 -0.03382621 0.90084648
0.10616354 -0.033857178 0.90165627
0.10840764 -0.033853989 0.90155309
0.10871432 -0.033832517 0.90097821
0.10946021 -0.033830974 0.90093094
0.11265098 -0.033887345 0.90240723
0.11338221 -0.033881117 0.90223491
0.11509854 -0.033833053 0.90093911
0.11552823 -0.033848953 0.9013592
0.11627938 -0.03384893 0.90135223
0.11700358 -0.033841122 0.90113777
0.090204306 -0.033415299 0.89999801
0.090644374 -0.033439301 0.90064186
0.0973894 -0.033435885 0.90050083
0.098166436 -0.033444937 0.90073901
0.10226738 -0.033435896 0.90046388
0.1101917 -0.033449527 0.90076745
0.11058794 -0.033455845 0.90093446
0.11211522 -0.033463482 0.90112764
0.076654956 -0.03301933 0.89951944
0.084143184 -0.033016309 0.89938992
0.095044911 -0.03302817 0.89963728
0.095438994 -0.033034824 0.89981574
0.10460328 -0.033087302 0.90117598
0.11172973 -0.033084869 0.90105122
0.11214162 -0.033095617 0.90134078
0.06314981 -0.032638319 0.89942622
0.063500598 -0.032626007 0.8990851
0.06459251 -0.032609887 0.89863521
0.065002985 -0.032627985 0.89913201
0.06535612 -0.032617252 0.89883441
0.067591198 -0.032611478 0.89866352
0.074345298 -0.03261774 0.89879847
0.074710406 -0.032613643 0.89868325
0.076648459 -0.032641664 0.89944422
0.076989956 -0.03262756 0.89905334
0.077361867 -0.032626424 0.89901978
0.085588783 -0.032621086 0.89881998
0.089343391 -0.032624543 0.8988896
0.050700046 -0.032211035 0.89802015
0.051065903 -0.032205798 0.89787257
0.054430887 -0.032204665 0.89782721
0.057508331 -0.032252211 0.8991397
0.057884157 -0.032252878 0.89915657
0.058685448 -0.032281488 0.8999508
0.058992963 -0.032244619 0.89892119
0.062324896 -0.032224491 0.8983441
0.062719248 -0.032234795 0.89862943
0.065679751 -0.032217696 0.89813763
0.06795831 -0.032233469 0.89856553
0.068751648 -0.032254368 0.89914405
0.071321689 -0.032230675 0.89846903
0.071702719 -0.032233674 0.89855057
0.073550016 -0.032222867 0.89823854
0.073959969 -0.03223842 0.89867002
0.07580936 -0.032228716 0.89838845
0.076270141 -0.032265291 0.89940566
0.077646524 -0.032214411 0.89797831
0.08290647 -0.032222874 0.89818096
0.087821752 -0.03224127 0.89866114
0.088946134 -0.032241642 0.8986637
0.037224893 -0.031832546 0.897946
0.03795642 -0.03181852 0.89754832
0.041302335 -0.031803321 0.89710957
0.048411332 -0.031808071 0.8972193
0.050332654 -0.031841084 0.89814335
0.050711378 -0.031843916 0.89822179
0.051805627 -0.031826414 0.89772362
0.054061837 -0.031833466 0.89791334
0.057080839 -0.031848006 0.89831048
0.057482313 -0.031863078 0.89873391
0.058285322 -0.031892672 0.89956522
0.069764763 -0.031829081 0.89771307
0.070909195 -0.031839099 0.89798921
0.072074555 -0.031858053 0.89851749
0.073165022 -0.031843834 0.89811003
0.079136141 -0.031837326 0.89789039
0.010267441 -0.031399306 0.8963021
0.013261167 -0.031413872 0.89671665
0.015503876 -0.031415891 0.89677286
0.021475019 -0.031405505 0.89647031
0.025960233 -0.031409208 0.89656913
0.031201079 -0.031420391 0.89687812
0.031951915 -0.031423803 0.89697379
0.032312401 -0.031410933 0.89660561
0.032689486 -0.031414311 0.89670116
0.034207888 -0.031436335 0.89732623
0.034929853 -0.031413157 0.89666271
0.035296503 -0.031406976 0.89648539
0.037208658 -0.031444632 0.89755523
0.03828631 -0.031408336 0.89651608
0.042020824 -0.03140774 0.89648783
0.043890797 -0.031409439 0.89653021
0.046532385 -0.031427551 0.8970381
0.046901908 -0.03142472 0.89695597
0.048417091 -0.031437911 0.89732695
0.050295103 -0.03144332 0.89747423
0.055147823 -0.031438537 0.89731771
0.060784925 -0.031453595 0.89772183
0.069086105 -0.031486589 0.89862126
0.078793459 -0.031475659 0.89825207
0.010265915 -0.031021176 0.89616907
0.010635303 -0.031009505 0.89583182
0.012127414 -0.031007223 0.8957653
0.014761532 -0.03105258 0.89707416
0.017375093 -0.031047568 0.8969273
0.017735658 -0.031024581 0.89626288
0.021095281 -0.03102278 0.89620709
0.021856872 -0.031043779 0.89681268
0.022219142 -0.031027876 0.89635283
0.022588052 -0.031021619 0.89617157
0.02295942 -0.03101889 0.89609218
0.023323048 -0.031005958 0.89571798
0.026320586 -0.031020034 0.89611977
0.02894127 -0.031027665 0.89633536
0.030798808 -0.031017855 0.89604801
0.032319497 -0.03104412 0.89680338
0.04165259 -0.031038094 0.89660382
0.04311803 -0.031017352 0.89599979
0.044988144 -0.031019785 0.89606375
0.045759846 -0.031036749 0.89655119
0.047282413 -0.031055389 0.89708424
0.070544191 -0.031094626 0.89810979
0.0080169821 -0.030614957 0.89521176
0.0098812515 -0.0306128 0.89514846
0.010268942 -0.030656753 0.89643359
0.012501561 -0.030636201 0.89583176
0.017375376 -0.030674303 0.8969425
0.019209404 -0.030619269 0.89533138
0.019580889 -0.030616838 0.89525986
0.019954586 -0.030617895 0.89529026
0.020335037 -0.030629084 0.89561701
0.020710146 -0.030631969 0.89570093
0.021100197 -0.030656461 0.89641666
0.0218601 -0.030674594 0.89694583
0.02405585 -0.030615393 0.89521152
0.029317757 -0.030657319 0.89642805
0.044627834 -0.030655326 0.89632779
0.0027957191 -0.030248988 0.89542097
0.0035409245 -0.030240791 0.89517862
0.0042862156 -0.030236056 0.89503866
0.0054030293 -0.030225124 0.89471537
0.0087615969 -0.030237159 0.89507169
0.0095096361 -0.030244064 0.89527595
0.016999586 -0.030296825 0.89683372
0.019585043 -0.030250188 0.89545047
0.028553601 -0.030265572 0.89589179
-0.025889426 -0.02982704 0.89390695
-0.025521865 -0.029832784 0.89408028
-0.022912432 -0.029830689 0.89402527
-0.022530952 -0.029818831 0.89367098
-0.020667985 -0.02981724 0.89362842
-0.020303247 -0.029828427 0.89396471
-0.019922322 -0.029815806 0.89358741
-0.019552235 -0.029819235 0.89369112
-0.018805072 -0.029815421 0.89357871
-0.018060055 -0.029814832 0.89356285
-0.0098742144 -0.029830767 0.89405704
-0.0091254422 -0.029818587 0.89369321
-0.0087557957 -0.029827867 0.89397192
-0.0083896881 -0.029850559 0.89465261
-0.007643234 -0.029846983 0.89454651
-0.006892113 -0.029822441 0.893812
-0.0065215747 -0.029831039 0.89407021
-0.004658699 -0.029829439 0.89402449
-0.003914041 -0.029832119 0.89410573
-0.0035440631 -0.029853687 0.8947525
-0.0027970506 -0.029838782 0.89430648
0.002045756 -0.029820392 0.89375895
0.0024181141 -0.029819997 0.89374727
0.0027927014 -0.029843528 0.89445269
0.0046607722 -0.029873513 0.89535201
0.0050316514 -0.029860614 0.89496553
0.0065148002 -0.029822091 0.89381117
0.024445973 -0.02989025 0.89584029
-0.031466629 -0.029445279 0.89360809
-0.026612742 -0.02943062 0.89317989
-0.025126541 -0.029433534 0.893273
-0.021787107 -0.029447656 0.89371145
-0.021040983 -0.029445769 0.89365625
-0.020303573 -0.029456388 0.89398044
-0.018051732 -0.029428925 0.89315259
-0.012838515 -0.029421842 0.89294899
-0.010988221 -0.029448692 0.8937673
-0.0042889621 -0.029475983 0.89460516
-0.0024212317 -0.029427364 0.89313149
-0.00093273597 -0.02942824 0.89315933
-0.00018844577 -0.02942715 0.89312685
0.00018369025 -0.029428486 0.89316761
-0.045916051 -0.029027199 0.89214158
-0.042577904 -0.029032463 0.89231962
-0.041839872 -0.029036371 0.89244318
-0.041468564 -0.029036773 0.89245731
-0.037379526 -0.029038122 0.89251685
-0.036634251 -0.029036967 0.89248443
-0.035894558 -0.029040275 0.89258921
-0.035169166 -0.029055543 0.89306152
-0.034780398 -0.029041653 0.89263606
-0.034413807 -0.029046178 0.89277667
-0.033656381 -0.029034616 0.89242423
-0.031808048 -0.029044652 0.89273977
-0.031497754 -0.029101657 0.89449328
-0.028152531 -0.02911127 0.8948006
-0.027382171 -0.029085072 0.89399779
-0.026997702 -0.029072197 0.89360332
-0.01881638 -0.029088203 0.89411891
-0.018440681 -0.029083245 0.89396745
-0.017662795 -0.029029166 0.89230698
-0.014689749 -0.029031822 0.89239532
-0.014327583 -0.029051423 0.89299858
-0.011348694 -0.029045748 0.89282984
-0.049970023 -0.028635126 0.89149004
-0.046647988 -0.028648291 0.89191747
-0.046285447 -0.02865394 0.89209521
-0.045957372 -0.028681193 0.89294559
-0.045563664 -0.028667595 0.89252412
-0.043675721 -0.028649004 0.89195442
-0.042207014 -0.02866124 0.89234239
-0.041083727 -0.028655825 0.89217901
-0.040699326 -0.028646933 0.89190388
-0.039967284 -0.028655011 0.89215875
-0.039620742 -0.028673263 0.89272869
-0.039236408 -0.02866425 0.89244974
-0.03887324 -0.028670678 0.8926515
-0.03699844 -0.028659077 0.89229828
-0.034423001 -0.0286818 0.8930164
-0.034054182 -0.028684575 0.89310426
-0.015428118 -0.028650137 0.89208895
-0.013953593 -0.028675407 0.89287895
-0.01358275 -0.028677922 0.89295805
-0.060364921 -0.028260397 0.89132929
-0.059651788 -0.028274501 0.89177877
-0.059231773 -0.028251423 0.8910532
-0.057764653 -0.02826032 0.891343
-0.055879243 -0.028246075 0.89090484
-0.054073006 -0.028272251 0.89174134
-0.053286586 -0.028249346 0.8910231
-0.052553743 -0.028254598 0.89119303
-0.050683931 -0.028247388 0.89097595
-0.050323457 -0.028253455 0.89116931
-0.049576394 -0.028250983 0.89109534
-0.048454653 -0.028246466 0.89095879
-0.046648782 -0.028277069 0.89193374
-0.040350139 -0.028291002 0.89240366
-0.033672243 -0.028304167 0.89284724
-0.015808376 -0.028293721 0.89257252
-0.081449643 -0.027859241 0.89022911
-0.077755868 -0.027865134 0.8904469
-0.076341428 -0.027890699 0.89127541
-0.075931929 -0.027876729 0.89083177
-0.075527608 -0.027864531 0.89044482
-0.071785934 -0.027852636 0.89009237
-0.066999935 -0.027867746 0.89060956
-0.066237576 -0.027859313 0.89034522
-0.064740114 -0.027853595 0.89017248
-0.0640136 -0.027860306 0.89039195
-0.063316561 -0.027880155 0.89103121
-0.062578648 -0.027882263 0.89110351
-0.062172547 -0.027866689 0.89060819
-0.061439414 -0.027870843 0.8907457
-0.06003638 -0.027908856 0.8919701
-0.059645664 -0.027899966 0.89168829
-0.058856107 -0.027877999 0.89099091
-0.058489606 -0.027880287 0.89106625
-0.058137756 -0.027889632 0.89136726
-0.057372157 -0.027878607 0.8910194
-0.056978088 -0.027867476 0.89066589
-0.05658593 -0.027857138 0.89033777
-0.055541903 -0.027891811 0.89145255
-0.055180047 -0.02789668 0.89161038
-0.04770077 -0.027868535 0.89075208
-0.083281443 -0.027480477 0.88996607
-0.081894703 -0.027513037 0.8910327
-0.081485018 -0.0275001 0.89061677
-0.076665148 -0.027502079 0.89071906
-0.076338977 -0.027518313 0.89124775
-0.075915918 -0.027499614 0.89064497
-0.07509198 -0.027469773 0.88968414
-0.072120421 -0.027467754 0.88964093
-0.071368791 -0.027463861 0.88952029
-0.069523439 -0.027467092 0.88963836
-0.069147542 -0.027465051 0.88957489
-0.06881202 -0.027479107 0.89003277
-0.068423852 -0.027472181 0.88981104
-0.067424551 -0.027518369 0.89131492
-0.066626474 -0.027495597 0.89058244
-0.065842152 -0.02747805 0.89001924
-0.065136425 -0.027493279 0.89051753
-0.061073631 -0.027502039 0.89082825
-0.060755357 -0.027526034 0.89160776
-0.093951687 -0.027084742 0.88906074
-0.0931952 -0.027080271 0.88892072
-0.08836367 -0.027075658 0.88881195
-0.084653616 -0.027073856 0.88878441
-0.083954461 -0.027087307 0.88923216
-0.082175173 -0.027111638 0.8900463
-0.081862211 -0.027130853 0.89068019
-0.08110065 -0.02712445 0.89047599
-0.079888776 -0.027091043 0.8893882
-0.078502186 -0.027124237 0.89048976
-0.078136042 -0.027125964 0.89054942
-0.0763129 -0.027137553 0.89094436
-0.074673623 -0.027081683 0.88912147
-0.07427711 -0.027072221 0.88881356
-0.072483376 -0.027094029 0.88954347
-0.069945276 -0.027116098 0.89028698
-0.067703821 -0.027109966 0.89010149
-0.094794288 -0.026742749 0.89000791
-0.094396278 -0.026735084 0.8897562
-0.093627736 -0.026727417 0.88950783
-0.092824571 -0.026709668 0.88892382
-0.090895168 -0.02668708 0.88818866
-0.090571582 -0.026700815 0.88864911
-0.090254702 -0.026716651 0.88917941
-0.08876317 -0.026713898 0.88910085
-0.088027403 -0.026715521 0.88916129
-0.087634251 -0.026708644 0.88893563
-0.081851192 -0.026755987 0.89056128
-0.072856873 -0.026724283 0.88957572
-0.0721623 -0.026741656 0.89015955
-0.071005329 -0.026725076 0.88961589
-0.068082817 -0.02674214 0.8902052
-0.095907062 -0.026371706 0.88999796
-0.089513958 -0.026346115 0.88919133
-0.088874951 -0.026376443 0.89022142
-0.087215997 -0.026323671 0.88845319
-0.085823834 -0.026350992 0.88938802
-0.085109338 -0.026359305 0.88967496
-0.07358072 -0.026347196 0.88935834
-0.09590888 -0.026001178 0.89001578
-0.095915146 -0.025631823 0.89007485
-0.095417671 -0.025597885 0.88889986
-0.095841259 -0.02524131 0.88939017
-0.095255263 -0.025184382 0.88738781
-0.095312081 -0.024829252 0.887918
