# .PCD v0.7 - Point Cloud Data file format
VERSION 0.7
FIELDS x y z
SIZE 4 4 4
TYPE F F F
COUNT 1 1 1
WIDTH 178
HEIGHT 1
VIEWPOINT 0 0 0 1 0 0 0
POINTS 178
DATA ascii
-0.096822031 -0.028649056 0.89157903
-0.097021103 -0.02833551 0.89341319
-0.096549928 -0.027934473 0.89250433
-0.096564256 -0.027566493 0.89263773
-0.095981292 -0.02750605 0.89068395
-0.09657117 -0.027196314 0.89270264
-0.096044309 -0.027152555 0.89126968
-0.096099712 -0.026796449 0.89178479
-0.095710985 -0.02446647 0.888183
-0.09523461 -0.024439218 0.8871972
-0.095236428 -0.024069823 0.88721502
-0.095172822 -0.023684137 0.88662338
-0.094759524 -0.02330376 0.88621837
-0.09532591 -0.022892933 0.8846131
-0.094837166 -0.022495681 0.88349903
-0.09438315 -0.02247525 0.88270009
-0.095297188 -0.022148708 0.88434815
-0.094826274 -0.022124829 0.88339829
-0.094455004 -0.02175585 0.88337374
-0.09399987 -0.021367826 0.88256156
-0.09363097 -0.020999668 0.88255572
-0.093166783 -0.02097797 0.88164735
-0.093780339 -0.019849699 0.88050348
-0.095492691 -0.019457702 0.87935883
-0.095494539 -0.019091489 0.87937659
-0.095030561 -0.018705705 0.87847972
-0.09419284 -0.017953165 0.87750566
-0.093790524 -0.017946159 0.87716693
-0.093668617 -0.017192455 0.87602824
-0.094284564 -0.01680691 0.87496156
-0.093990497 -0.016819537 0.87562275
-0.094286405 -0.016442483 0.87497932
-0.093859509 -0.016067073 0.87440377
-0.094165109 -0.015692763 0.87385499
-0.093712263 -0.015677925 0.87303263
-0.093714096 -0.015314286 0.87305033
-0.092376053 -0.014547558 0.87073886
-0.092377864 -0.014184857 0.87075657
-0.093365185 -0.0138069 0.86980224
-0.093052432 -0.013814279 0.87027103
-0.092970841 -0.013439698 0.86950856
-0.093311913 -0.013074252 0.8693071
-0.093187816 -0.012333059 0.86815214
-0.093436942 -0.011956744 0.8671034
-0.093775444 -0.011592459 0.86688894
-0.093378745 -0.011588056 0.86656386
-0.093180872 -0.011203024 0.86472809
-0.093655318 -0.010855778 0.86577952
-0.093091272 -0.010832122 0.86389709
-0.093520567 -0.010479764 0.86453432
-0.093184575 -0.010482489 0.8647635
-0.093518741 -0.01011917 0.86451793
-0.093091011 -0.010111835 0.86389565
-0.093040816 -0.0093865143 0.8634308
-0.091490619 -0.0090156151 0.86240059
-0.092110962 -0.0086468933 0.86147302
-0.09181428 -0.0086527579 0.86206192
-0.092082031 -0.0082851751 0.8612029
-0.092037797 -0.0079223663 0.86078966
-0.092628203 -0.0071948618 0.85960424
-0.092288174 -0.0071962695 0.85977745
-0.092589706 -0.0068336832 0.85924733
-0.091775529 -0.0068263686 0.85833794
-0.092051618 -0.0061053541 0.85757476
-0.091582261 -0.0060978862 0.8565312
-0.092385143 -0.0057463939 0.85735005
-0.091870502 -0.005379769 0.85588813
-0.091558903 -0.0053824061 0.85631341
-0.091872364 -0.0050230846 0.85590583
-0.09216702 -0.0046631675 0.85532683
-0.091735527 -0.0046593416 0.85463136
-0.09173739 -0.0043031671 0.85464901
-0.09206146 -0.0039455378 0.85434788
-0.090971515 -0.003944546 0.85415381
-0.090934567 -0.003587028 0.85380721
-0.090546556 -0.0035857374 0.85350728
-0.09051346 -0.0032287673 0.85319555
-0.090126798 -0.0032276376 0.8529048
-0.090072714 -0.0028703769 0.85239321
-0.090409577 -0.0025145593 0.85221684
-0.089911707 -0.0025105576 0.85086977
-0.090283521 -0.0018015422 0.85102916
-0.090560243 -0.0014455605 0.85029405
-0.090843223 -0.0010902722 0.8496232
-0.091798879 -0.00038154441 0.84862792
-0.091749899 -2.7770146e-05 0.84817529
-0.091385826 -2.7747274e-05 0.84808052
-0.090927318 0.00032542658 0.84710526
-0.090811901 0.00067768747 0.84603018
-0.090561606 0.00067847397 0.84699035
-0.090776086 0.0013824897 0.84569681
-0.09140268 0.0017334969 0.84496629
-0.091086194 0.001734197 0.84530061
-0.091331638 0.0020841081 0.84430969
-0.091269255 0.0024344022 0.84373307
-0.090887785 0.002433625 0.84345955
-0.090741448 0.0027807434 0.84210163
-0.091134861 0.0031332171 0.84249085
-0.090743341 0.003131845 0.84211928
-0.090306267 0.0031288839 0.8413204
-0.090745226 0.0034829616 0.84213692
-0.090348095 0.0034812056 0.84171021
-0.090286583 0.0038294683 0.84113723
-0.090221807 0.0041771024 0.84053385
-0.090871274 0.0048750741 0.84005445
-0.090389945 0.0055673826 0.83884007
-0.08993455 0.0059101311 0.83785784
-0.089648142 0.005914297 0.83844829
-0.090241261 0.0062564262 0.83746028
-0.089924604 0.0062587038 0.83776516
-0.089867175 0.0066037108 0.83723015
-0.089158475 0.0066029574 0.83713496
-0.089080602 0.0069458466 0.83640373
-0.088966489 0.0072851591 0.83533221
-0.088565364 0.0072808284 0.83483607
-0.088968359 0.0076335301 0.8353498
-0.088501751 0.0076233512 0.83423638
-0.088840038 0.0079702344 0.83414489
-0.088793389 0.0083135823 0.83370686
-0.089143351 0.0086613307 0.83372688
-0.089036614 0.0093452111 0.83272851
-0.088292226 0.0096868742 0.83226097
-0.087923609 0.009684504 0.83205825
-0.087544046 0.010027618 0.83174986
-0.087997697 0.011037643 0.82948416
-0.088671945 0.011381155 0.82931715
-0.089648694 0.011718909 0.82875121
-0.089321703 0.011721353 0.82892525
-0.08822795 0.012059145 0.82839644
-0.087809958 0.012394225 0.82771385
-0.087760769 0.012732121 0.82725
-0.088978879 0.013397442 0.8257429
-0.088684402 0.01340498 0.82620889
-0.089308299 0.013739361 0.82560331
-0.088928737 0.013733912 0.82527733
-0.088485323 0.013718522 0.82435393
-0.088883817 0.014070823 0.82486027
-0.088441707 0.014055226 0.82394737
-0.088336855 0.014381621 0.82297033
-0.08873184 0.014733281 0.82344937
-0.088435665 0.014741149 0.82389057
-0.088656142 0.015406644 0.8227464
-0.088943273 0.015739709 0.82222736
-0.088900141 0.016074659 0.82182837
-0.088513367 0.016066657 0.82142085
-0.086277992 0.017058248 0.81971657
-0.086596839 0.017395336 0.81949759
-0.086895093 0.017728077 0.81908602
-0.087828904 0.018050855 0.81823492
-0.087395988 0.018372653 0.81737828
-0.087011322 0.018363399 0.81696826
-0.086974666 0.018696073 0.81662369
-0.086918071 0.019024096 0.81609195
-0.086919956 0.019364705 0.8161093
-0.086868964 0.019693339 0.81563014
-0.086409301 0.019666126 0.81450468
-0.086411178 0.020006087 0.81452203
-0.08835686 0.020324448 0.81366342
-0.088040277 0.020329686 0.81387496
-0.088386342 0.020670524 0.81393456
-0.08795248 0.020648342 0.81306291
-0.088282511 0.020985138 0.81297791
-0.087967075 0.020990755 0.81319743
-0.088205189 0.021643955 0.81226504
-0.087799698 0.021627497 0.8116492
-0.087731697 0.022624984 0.81101924
-0.087588847 0.023263201 0.80969775
-0.087397717 0.023549227 0.80793035
-0.087288298 0.023856115 0.80691832
-0.087207258 0.024170022 0.80616868
-0.087699197 0.024549695 0.80760109
-0.086973384 0.024871377 0.80711842
-0.087561741 0.025183471 0.8063342
-0.087517165 0.025506606 0.80592316
-0.087426864 0.025815899 0.80509102
-0.087037899 0.025800103 0.80460036
-0.087347694 0.026127826 0.80436146
-0.087207802 0.026420748 0.80307263
