# .PCD v0.7 - Point Cloud Data file format
VERSION 0.7
FIELDS x y z
SIZE 4 4 4
TYPE F F F
COUNT 1 1 1
WIDTH 172
HEIGHT 1
VIEWPOINT 0 0 0 1 0 0 0
POINTS 172
DATA ascii
0.15953998 -0.037891053 0.9077642
0.15954188 -0.037512921 0.90777588
0.15969728 -0.036704522 0.90650833
0.16008587 -0.034276746 0.90230376
0.15949568 -0.033854991 0.90109861
0.15998527 -0.033879142 0.90173757
0.15943213 -0.033465859 0.90074039
0.15980256 -0.033089183 0.90070927
0.15929796 -0.032687042 0.899984
0.16109899 -0.031473268 0.89745921
0.16171105 -0.031519666 0.89877832
0.16147123 -0.031098645 0.89744616
0.1614076 -0.030712264 0.8970933
0.1612013 -0.030299358 0.8959474
0.16140947 -0.02989511 0.89502805
0.16146456 -0.029531917 0.89533424
0.1614664 -0.029158857 0.89534521
0.16110972 -0.028721869 0.89336807
0.16142114 -0.028711043 0.89302731
0.16119632 -0.028364535 0.89384907
0.16125801 -0.028309975 0.89212561
0.16152503 -0.027919808 0.89154392
0.16110878 -0.02754035 0.89130133
0.16090982 -0.027135087 0.89020133
0.16201146 -0.026390754 0.89012861
0.16219978 -0.025990268 0.8891241
0.16167977 -0.024798092 0.88627559
0.16156302 -0.024410833 0.88563627
0.1623078 -0.022882357 0.88365346
0.16235854 -0.021734286 0.88192654
0.1626787 -0.021727968 0.88166577
0.16206647 -0.020960901 0.88034117
0.16219468 -0.020610048 0.88103813
0.16202381 -0.020221287 0.88011056
0.1623137 -0.019889763 0.88168573
0.16277225 -0.019489001 0.88018423
0.16291372 -0.019462094 0.87896448
0.16298445 -0.019103812 0.87934655
0.16295479 -0.018733671 0.87918711
0.16308884 -0.018707033 0.87793243
0.16291319 -0.018321138 0.8769874
0.16291498 -0.017955586 0.87699747
0.16297162 -0.017921638 0.87533468
0.16305742 -0.017565822 0.87579608
0.16317755 -0.017213242 0.87644178
0.16268767 -0.016797146 0.87381119
0.16336797 -0.016829727 0.87550139
0.16287886 -0.016452033 0.87483847
0.16245903 -0.016081696 0.87454551
0.16249916 -0.016049679 0.87279958
0.16331092 -0.015658936 0.8712973
0.16392612 -0.014955199 0.87263632
0.16331621 -0.014569277 0.87132692
0.16357307 -0.014559838 0.8707574
0.16341907 -0.014214835 0.87187612
0.16357484 -0.014196838 0.87076724
0.16387837 -0.013828693 0.87044841
0.16371688 -0.013452399 0.86959106
0.16385671 -0.013071998 0.86840808
0.16410144 -0.012728807 0.86970544
0.16440921 -0.012724594 0.8694123
0.16405693 -0.012362736 0.86946994
0.16437267 -0.011970382 0.86730468
0.16386375 -0.011623801 0.86844695
0.16427326 -0.011601645 0.86678052
0.16437618 -0.011247192 0.86732399
0.16427676 -0.010878885 0.86679977
0.16454674 -0.010511575 0.86631584
0.16437183 -0.010139482 0.86539525
0.16476448 -0.010141475 0.86555946
0.16411005 -0.0097629894 0.86401737
0.1641894 -0.0097463494 0.86253875
0.16399446 -0.0093960222 0.86340916
0.1641241 -0.0093828877 0.86219609
0.16395915 -0.0090339864 0.86322361
0.16425 -0.0090302238 0.86285782
0.16431177 -0.0090139108 0.86129272
0.16412759 -0.0086639011 0.86221504
0.16427302 -0.0082935356 0.8610903
0.16375588 -0.007926723 0.86026305
0.16463737 -0.0072007603 0.85923928
0.16403519 -0.0068471087 0.85984492
0.16457319 -0.0068397382 0.8589046
0.16489109 -0.0068381052 0.85869217
0.16478179 -0.0064756828 0.8581233
0.16529019 -0.0064816228 0.85890287
0.1647705 -0.0061173732 0.85806477
0.16528349 -0.0053951014 0.85700911
0.16524026 -0.0050363569 0.85678524
0.1647736 -0.0046758829 0.85621989
0.1650245 -0.0046729138 0.85566682
0.16502622 -0.004316092 0.855676
0.16527677 -0.0043133548 0.8551234
0.16472951 -0.0039521027 0.85413778
0.16511674 -0.0039528827 0.85429567
0.16447058 -0.0035902222 0.85279548
0.16495891 -0.0035931489 0.85347933
0.16476689 -0.0032334258 0.85248613
0.16504575 -0.003231961 0.85208774
0.16476861 -0.0028779148 0.85249519
0.16485745 -0.0028733034 0.85111582
0.16485916 -0.0025183591 0.85112482
0.16510837 -0.0025167838 0.85057753
0.16486086 -0.0021634079 0.85113388
0.16454363 -0.0018049505 0.8494963
0.16448861 -0.0014501713 0.84921253
0.16475992 -0.0014494783 0.84878308
0.1646921 -0.0010973514 0.8502633
0.16474089 -0.00074139715 0.84868544
0.16536042 -0.00074107287 0.84822714
0.16534922 -0.00038727856 0.8481698
0.16556452 -0.00038699081 0.84745872
0.16512741 -3.3525834e-05 0.84885079
0.16535091 -3.3534965e-05 0.84817874
0.1656329 -3.3556084e-05 0.84780896
0.165861 0.0003197609 0.84716564
0.16566017 0.00067227316 0.84614009
0.16558073 0.0010246809 0.84573448
0.16587217 0.0010242672 0.84541965
0.16584522 0.0013766433 0.84528244
0.16540983 0.0020762633 0.84306371
0.16616064 0.0020812287 0.84509152
0.16565064 0.0024262227 0.84249777
0.16560805 0.0027768903 0.84228122
0.16641036 0.0027844023 0.84456778
0.16593777 0.0031277412 0.84216946
0.16614707 0.0034759832 0.84144825
0.16623546 0.0041712536 0.84011912
0.16647857 0.004879164 0.84134799
0.16677999 0.0048776832 0.84109598
0.16646276 0.0052185394 0.8394962
0.16646445 0.0055687292 0.83950478
0.16639797 0.0059165033 0.83916962
0.16670218 0.0059148455 0.83893675
0.1662755 0.0062618889 0.83855212
0.16650826 0.0062574595 0.83796096
0.16596612 0.0065993262 0.83699191
0.16620223 0.0065948106 0.83642095
0.1659974 0.0069497251 0.83714974
0.16660862 0.0072950013 0.83670753
0.16688845 0.007291947 0.83635855
0.16689011 0.0076408521 0.83636701
0.16717914 0.0079867942 0.83606553
0.16699713 0.0086747538 0.83515543
0.1670365 0.0090063894 0.83361107
0.16697329 0.0093505345 0.83329564
0.1666109 0.0096972538 0.83322382
0.16656618 0.0096744411 0.8312639
0.16710167 0.0096853515 0.83220166
0.16649993 0.010363727 0.83093333
0.16677083 0.010358996 0.83055407
0.16677248 0.010705513 0.83056235
0.16709031 0.010703649 0.83041781
0.1673329 0.011043126 0.8299008
0.16733457 0.011389378 0.82990909
0.16741776 0.011717088 0.82860523
0.167548 0.012072072 0.8292498
0.16756776 0.012048594 0.82763672
0.16746514 0.0124118 0.82883966
0.1676769 0.012401863 0.82817572
0.16757108 0.012739241 0.82765305
0.16721131 0.013083335 0.82758331
0.16745125 0.013075088 0.82706112
0.16760269 0.013404538 0.82610488
0.16743737 0.013735536 0.82528996
0.1678853 0.013743997 0.82579774
0.16739219 0.014075957 0.82506722
0.16791283 0.014090739 0.82593304
0.16827132 0.014091882 0.82599938
0.16748455 0.014428041 0.82552242
0.16695648 0.015100084 0.82461709
0.16810292 0.015422866 0.82348412
