# .PCD v0.7 - Point Cloud Data file format
VERSION 0.7
FIELDS x y z
SIZE 4 4 4
TYPE F F F
COUNT 1 1 1
WIDTH 551
HEIGHT 1
VIEWPOINT 0 0 0 1 0 0 0
POINTS 551
DATA ascii
0.14539529 0.01735767 0.81762123
0.16461988 0.017370056 0.81813896
0.16499552 0.017373651 0.81830722
0.16541483 0.017381819 0.81869096
0.14127065 0.017694736 0.81745714
0.14163737 0.017697943 0.81760401
0.15063815 0.017713381 0.81828374
0.1522291 0.017739616 0.81949067
0.16467747 0.017717486 0.81842512
0.16503361 0.017719045 0.81849605
0.16711588 0.017758794 0.82032681
0.16840011 0.017749786 0.81990653
0.16109051 0.018039687 0.81756848
0.16516577 0.018074891 0.8191514
0.16687122 0.018074444 0.81912565
0.11619945 0.018348167 0.81629962
0.14627227 0.01840503 0.81870794
0.14667876 0.018413175 0.81906891
0.15353926 0.018416204 0.81917733
0.15971933 0.018379942 0.81754071
0.1601948 0.01835623 0.81648368
0.16053617 0.018356301 0.81648558
0.16096608 0.018366471 0.81693679
0.16159637 0.018399417 0.81840098
0.16814759 0.018406106 0.81867683
0.16845632 0.018402502 0.81851542
0.12906668 0.018678466 0.81580806
0.13133587 0.018662443 0.81509829
0.13822448 0.018720474 0.81760585
0.14752886 0.018732497 0.81809354
0.14784019 0.018728694 0.81792611
0.14812228 0.018721215 0.8175981
0.15532492 0.018725842 0.81777239
0.15568851 0.018728528 0.81788844
0.1560722 0.018733615 0.81810933
0.15956476 0.01874283 0.81849915
0.15993357 0.018706061 0.81689095
0.16325155 0.018734707 0.81813097
0.16398752 0.018740768 0.81839323
0.1127429 0.019019915 0.81593299
0.12236919 0.018982532 0.81428772
0.12278005 0.018993556 0.81475919
0.12577108 0.018983409 0.81431091
0.12615365 0.018989874 0.81458676
0.13163789 0.018996818 0.81486148
0.13333185 0.01904458 0.81690449
0.13541442 0.019049929 0.81712526
0.13747407 0.019051937 0.81720275
0.13814551 0.019050505 0.81713843
0.13960825 0.019064054 0.81771386
0.14237729 0.019069407 0.81793213
0.14265151 0.019060452 0.81754667
0.14328174 0.019053549 0.81724769
0.14365938 0.019058414 0.81745499
0.15399474 0.019071203 0.81796241
0.15433227 0.019070733 0.81794101
0.15468396 0.019072013 0.81799453
0.15494606 0.019062264 0.8175751
0.16358347 0.019074818 0.81808192
0.10546589 0.019335778 0.81493926
0.10574377 0.019324465 0.81446105
0.10960416 0.019346518 0.81537491
0.1099809 0.019352984 0.81564605
0.11044434 0.019374624 0.81655663
0.11809167 0.019344486 0.81525332
0.12179589 0.019338835 0.81499904
0.12210856 0.019334525 0.81481594
0.12579389 0.019326426 0.81445849
0.12616201 0.019330781 0.81464052
0.12808751 0.019365048 0.81607729
0.12840593 0.019361738 0.81593633
0.13177299 0.019356424 0.81569767
0.13474703 0.019392703 0.81721473
0.13511771 0.019396979 0.81739354
0.136457 0.019393487 0.81724054
0.13774027 0.019382177 0.8167581
0.13813515 0.01938978 0.81707704
0.11002344 0.01970062 0.8159613
0.11239953 0.019699654 0.81591111
0.11281641 0.019713048 0.81646448
0.115559 0.019716283 0.81658679
0.12026922 0.019706925 0.81617856
0.12244987 0.019674474 0.81482416
0.12586696 0.019677421 0.81493139
0.12624465 0.019683314 0.81517392
0.12813558 0.019712696 0.8163833
0.12851717 0.019718999 0.81664288
0.13188395 0.019713115 0.81638426
0.13224098 0.019715577 0.81648475
0.13259287 0.019717259 0.81655294
0.13399103 0.019722525 0.81676507
0.13425675 0.019711517 0.81630766
0.1346374 0.019717397 0.81654972
0.091371417 0.019979222 0.81353027
0.091732197 0.01998394 0.81372106
0.095674098 0.019957108 0.81261247
0.096140787 0.0199837 0.81369388
0.10096815 0.019999204 0.8143059
0.10731014 0.020042347 0.81603688
0.11175963 0.020047056 0.81620973
0.11209153 0.020045549 0.81614685
0.11241589 0.020042706 0.81602967
0.11441946 0.020036044 0.81574959
0.11480502 0.020043971 0.8160708
0.11754099 0.020046288 0.81615323
0.1195896 0.020047382 0.81618887
0.11993271 0.020047842 0.8162061
0.12061308 0.020047778 0.81620049
0.12090649 0.020039992 0.81588203
0.1211652 0.020026514 0.81533182
0.12289802 0.020031845 0.81554133
0.12326097 0.020035556 0.81569088
0.12503318 0.020046989 0.81614876
0.12642363 0.020051572 0.81632936
0.12676464 0.02005166 0.81633139
0.082692131 0.020352177 0.81491941
0.08473561 0.02035349 0.81496453
0.0878608 0.020290725 0.81243867
0.094955511 0.020287046 0.81226361
0.095324725 0.020293562 0.81252307
0.095807798 0.020324184 0.81374776
0.096619472 0.020352243 0.81486845
0.097351298 0.020363208 0.8153047
0.098999791 0.020352731 0.81487828
0.10100596 0.020346254 0.81461054
0.10369904 0.02034157 0.81441164
0.10415487 0.020364305 0.81532049
0.10614763 0.020355329 0.81495237
0.10653038 0.020363543 0.81527978
0.10687354 0.020364158 0.81530303
0.10721949 0.0203653 0.81534725
0.082107857 0.02063036 0.81249982
0.083756916 0.020619472 0.81206483
0.084744953 0.020695439 0.81505406
0.087142974 0.020619757 0.81206334
0.087454222 0.020613337 0.81180918
0.092547797 0.020692945 0.81492585
0.094713971 0.020646773 0.81309795
0.094968192 0.020628368 0.81237179
0.096272446 0.020690326 0.81480759
0.099312156 0.020686701 0.81465226
0.10060599 0.020673413 0.81412327
0.10092924 0.020670101 0.81399149
0.1014151 0.020700004 0.81516761
0.10342106 0.020693375 0.81489789
0.10376533 0.020694276 0.81493199
0.1071648 0.020694625 0.81493115
0.071271375 0.02096902 0.81253809
0.071586356 0.020962095 0.81226861
0.075848177 0.02101738 0.81439728
0.076141022 0.021004532 0.81389827
0.079207316 0.021008067 0.81402457
0.081293695 0.021021172 0.81452513
0.081748538 0.020963693 0.81229544
0.082470872 0.020975187 0.8127383
0.086776949 0.020951573 0.81180674
0.087968908 0.020993767 0.8134377
0.088334218 0.021000005 0.81367815
0.088712573 0.021009285 0.81403637
0.089096867 0.021019895 0.81444615
0.090792917 0.021019565 0.81442672
0.091120087 0.021016724 0.81431526
0.094138786 0.021008611 0.81398863
0.099651322 0.021026177 0.81464678
0.099967532 0.021021254 0.81445462
0.10031021 0.02102191 0.81447858
0.064775303 0.021287214 0.81177866
0.065131277 0.021292994 0.81199807
0.065474495 0.021294562 0.8120569
0.071615145 0.021309175 0.81259501
0.07642474 0.021328246 0.81330615
0.076752611 0.021325162 0.81318742
0.077101655 0.021327963 0.81329304
0.077440485 0.021327926 0.81329042
0.078523025 0.021345768 0.81396723
0.079754546 0.021312235 0.81268358
0.080195382 0.021339405 0.81371844
0.083134308 0.021310315 0.81259793
0.083391927 0.021289615 0.81180739
0.084173486 0.021316158 0.81281692
0.084534585 0.021321783 0.81303018
0.086517066 0.021309264 0.812545
0.094426803 0.0213363 0.81354493
0.036936115 0.021566808 0.80963832
0.050594684 0.021637198 0.81225479
0.053615179 0.021626854 0.81185931
0.053920612 0.02161368 0.81136388
0.067528158 0.021640405 0.81232917
0.069237903 0.021645742 0.81252414
0.069543526 0.021635475 0.81213772
0.071653515 0.021659425 0.81303006
0.072676107 0.021661235 0.81309468
0.076758623 0.021665765 0.81325072
0.07945025 0.021660324 0.8130368
0.083790183 0.02164343 0.81238633
0.084179521 0.02165648 0.81287491
0.030178316 0.0218962 0.80935246
0.046473868 0.021947637 0.81122726
0.049857978 0.021949347 0.81128311
0.050236914 0.021967225 0.81194311
0.051976115 0.021987345 0.81268281
0.059314921 0.021946143 0.81114084
0.06146571 0.021990038 0.81275755
0.061793994 0.021986336 0.81261969
0.062454887 0.021980569 0.81240463
0.062753029 0.021966426 0.81188089
0.066437148 0.021954013 0.8114109
0.066785365 0.021957325 0.8115322
0.067133807 0.021960674 0.81165498
0.069602154 0.021992454 0.81282204
0.070952572 0.021991042 0.81276536
0.072976552 0.021988517 0.81266522
0.074691422 0.021994824 0.81289256
0.076361492 0.021987947 0.81263244
0.079776853 0.021995792 0.8129102
0.030503787 0.022224884 0.80904031
0.03151634 0.022225795 0.8090722
0.036958378 0.022254946 0.81012571
0.041036706 0.022270007 0.81066716
0.045108054 0.022278894 0.81098282
0.045433678 0.022272866 0.81076282
0.04613794 0.022286687 0.81126446
0.047149543 0.022285502 0.81121922
0.047519367 0.02230043 0.81176186
0.049544457 0.022298452 0.81168538
0.049895596 0.022304229 0.81189489
0.051270977 0.02231387 0.81224269
0.051608905 0.022313643 0.81223363
0.054254349 0.022288101 0.81129724
0.055606529 0.022288065 0.81129247
0.055955876 0.022292558 0.81145513
0.058664825 0.022294018 0.81150103
0.058975052 0.022283463 0.81111592
0.05966197 0.022287538 0.81126237
0.059996568 0.022286251 0.81121457
0.060347516 0.022291018 0.81138712
0.060714316 0.022301551 0.8117696
0.061083093 0.022312691 0.81217414
0.062769689 0.022310682 0.81209606
0.063096918 0.022306724 0.81195098
0.063460104 0.022315454 0.81226778
0.066130795 0.022302883 0.81180191
0.066453099 0.022297511 0.81160533
0.067189194 0.02231732 0.81232429
0.074301347 0.022318199 0.81233269
0.030851781 0.022569977 0.8093257
0.038656566 0.022598626 0.81034178
0.038963832 0.022581024 0.80971009
0.039266579 0.022561129 0.80899602
0.043416437 0.022615766 0.81094784
0.044772148 0.022617843 0.8110196
0.048834968 0.022621375 0.81113756
0.04917752 0.022623474 0.81121206
0.053945489 0.022638436 0.81173724
0.054274924 0.02263476 0.81160456
0.054613549 0.022634936 0.81161004
0.054956026 0.0226367 0.81167245
0.055295203 0.022637092 0.81168556
0.056317016 0.022639953 0.81178552
0.057327252 0.02263814 0.81171775
0.060033262 0.02263814 0.81171036
0.064090885 0.022637632 0.8116802
0.0001661585 0.022857096 0.80756348
0.023075862 0.022887126 0.80862361
0.02341366 0.022887997 0.80865413
0.023751525 0.02288891 0.80868614
0.029516481 0.022917705 0.80969787
0.031157164 0.022883834 0.80849922
0.031535842 0.02291422 0.80957234
0.033245128 0.022929905 0.81012422
0.035611887 0.022932461 0.81021112
0.03630944 0.022946613 0.81071007
0.036641873 0.022943258 0.8105911
0.039627459 0.02291199 0.80948126
0.042734869 0.022950584 0.81083924
0.043080334 0.022954641 0.81098187
0.043761525 0.022957455 0.81108004
0.044085082 0.02294996 0.8108145
0.044439297 0.022958416 0.81111264
0.048837915 0.022960765 0.81118619
0.016674032 0.023223177 0.80859613
0.016999451 0.023207514 0.80805069
0.017341655 0.023214929 0.80830872
0.018326348 0.023182517 0.80717975
0.018685203 0.023210531 0.808155
0.019033588 0.02322478 0.80865097
0.019713365 0.023231786 0.80889457
0.02409414 0.02323135 0.80887634
0.024424011 0.023224559 0.80863965
0.024728667 0.023194304 0.8075859
0.025083827 0.023211595 0.8081876
0.025423393 0.023214186 0.80827755
0.026155662 0.02326644 0.81009632
0.031548623 0.023260979 0.8099001
0.034569792 0.023250319 0.80952483
0.0349387 0.023271378 0.81025755
0.03528237 0.023275383 0.81039649
0.039662637 0.023269933 0.81019956
0.042043477 0.023279771 0.81053776
0.042384706 0.023281695 0.8106041
-0.00050683483 0.023532553 0.80764735
0.0075596501 0.023503132 0.80664146
0.017673237 0.023544818 0.80807108
0.018006122 0.023539865 0.80790097
0.01834923 0.023548216 0.80818743
0.01869431 0.023558749 0.80854869
0.020394212 0.023576712 0.80916429
0.025787398 0.023575885 0.8091318
0.028853407 0.023602 0.81002486
0.032902226 0.023601189 0.80999202
0.033911832 0.023599206 0.80992252
0.034248818 0.02359888 0.80991083
-0.012283454 0.023867264 0.8075726
0.0035311196 0.023868954 0.80764532
0.0038651547 0.023853768 0.80713159
0.0068946895 0.023864148 0.80748397
0.0072273351 0.023851668 0.80706173
0.014304657 0.023878437 0.80796748
0.01601758 0.023922907 0.80947185
0.016346447 0.023910636 0.80905646
0.018704344 0.023908477 0.80898243
0.020063704 0.023921767 0.80943137
-0.0062167179 0.024164284 0.80626279
-0.0058777211 0.024151668 0.80584228
-0.00084367226 0.02421491 0.80795699
0.0015109117 0.024185898 0.80699056
0.0018479028 0.024195936 0.80732572
0.002861355 0.024232868 0.80855858
0.0031971815 0.024224907 0.80829316
0.0042024418 0.0241959 0.80732572
0.0062186033 0.024188062 0.80706495
0.011269373 0.024203029 0.80756497
0.011962036 0.024243034 0.80889976
0.012298753 0.024242442 0.80887997
0.012634103 0.024239259 0.80877376
0.012969292 0.02423594 0.80866295
0.013967773 0.024214659 0.8079527
0.014309787 0.024223784 0.80825716
0.014657849 0.024242492 0.80888128
0.014993826 0.024240822 0.80882543
-0.031081 0.024504233 0.80634654
-0.023343071 0.024493745 0.80602038
-0.0062198406 0.024512507 0.80666631
-0.0058826972 0.024508139 0.80652297
-0.0055483086 0.024515415 0.8067627
-0.0052140085 0.024524041 0.80704701
-0.0045415973 0.024524551 0.80706441
-0.0042031119 0.024511568 0.80663753
-0.0038677733 0.024516275 0.8067928
-0.0035361738 0.024547834 0.80783165
-0.0021900816 0.0245503 0.80791402
-0.0018527571 0.024540855 0.80760342
-0.0011799198 0.024543487 0.80769056
0.00083963235 0.024556559 0.80812222
0.0015116553 0.024534326 0.80739099
0.0045408746 0.024543511 0.80769479
0.0058840932 0.024531636 0.80730444
0.0065632574 0.024555795 0.80809969
0.0082433093 0.024545755 0.80776966
0.0085801529 0.024546601 0.80779755
0.0089130979 0.024536654 0.80747026
0.011268789 0.024538256 0.80752307
0.011612131 0.024552843 0.80800307
-0.031065874 0.024828143 0.80595338
-0.026655234 0.024786498 0.80461276
-0.023012288 0.024835063 0.80619782
-0.019657509 0.024840668 0.80638677
-0.018983662 0.024838241 0.80630928
-0.01698067 0.024856947 0.80692035
-0.014296042 0.024865774 0.80721158
-0.013295431 0.024881463 0.80772245
-0.011610385 0.024876464 0.80756277
-0.0095897671 0.024871862 0.8074162
-0.0092533333 0.0248718 0.80741459
-0.0079093594 0.024877036 0.80758631
-0.0075731101 0.024877794 0.80761129
-0.0068978942 0.024869734 0.80735046
-0.0065581948 0.024857156 0.80694246
-0.0038714593 0.024876079 0.80755955
-0.0028629454 0.024883742 0.80780929
-0.0025262109 0.02488211 0.8077566
-0.0015164531 0.024880158 0.80769408
0.0011758112 0.024882477 0.80777127
0.001512187 0.024879605 0.80767828
0.0048730276 0.024857825 0.80697286
0.005207404 0.024849048 0.80668801
0.0055453787 0.024857463 0.80696136
0.0058841859 0.024868434 0.80731761
0.0062239305 0.024881968 0.80775714
0.010928893 0.024866885 0.80726808
0.011273928 0.024886083 0.80789131
-0.031410683 0.025171166 0.80618197
-0.02702881 0.025157422 0.80575311
-0.02600649 0.025142837 0.80528843
-0.025027068 0.02517022 0.8061679
-0.021668462 0.025170827 0.80619478
-0.020980539 0.025151543 0.80557859
-0.019324861 0.025181029 0.80652636
-0.018659625 0.025190303 0.80682474
-0.017656371 0.025197832 0.80706775
-0.017322127 0.02520079 0.80716312
-0.015279324 0.025159767 0.80585277
-0.014957088 0.025182551 0.80658305
-0.014630735 0.025199287 0.80711967
-0.013622158 0.025199849 0.80713934
-0.011265699 0.025194574 0.80697393
-0.010930243 0.025196357 0.80703151
-0.010595326 0.025199533 0.80713373
-0.010260023 0.025201967 0.80721217
-0.008914263 0.025200685 0.80717295
-0.0082418453 0.025201298 0.8071934
0.0052104644 0.025200004 0.8071627
0.010928598 0.025202584 0.80724627
-0.055727638 0.025412552 0.80310786
-0.037066374 0.025469147 0.80496514
-0.036704 0.025450472 0.80437589
-0.034697223 0.025453685 0.80448353
-0.032086097 0.025509916 0.80626845
-0.031749912 0.025509745 0.80626404
-0.031399973 0.0254984 0.80590636
-0.02770921 0.025501367 0.80600983
-0.02568564 0.025492977 0.80574965
-0.025370734 0.02551393 0.8064127
-0.024691967 0.025506975 0.80619442
-0.024349676 0.025500309 0.8059845
-0.023686787 0.025509767 0.80628496
-0.022685779 0.025517499 0.80653155
-0.02235058 0.025518483 0.80656344
-0.021335559 0.025510354 0.80630863
-0.020986153 0.025494028 0.80579329
-0.019997599 0.025517888 0.80654955
-0.016637739 0.025519073 0.80659342
-0.015945259 0.025486587 0.8055678
-0.015622152 0.025507066 0.80621564
-0.014955511 0.025515933 0.80649704
-0.051457196 0.025787789 0.8043896
-0.03439882 0.025816554 0.80534607
-0.03173887 0.025836721 0.80598283
-0.028049225 0.025841052 0.80612779
-0.026355704 0.025827328 0.80570382
-0.026014417 0.025821807 0.80553234
-0.025693595 0.025836717 0.80599833
-0.024013989 0.025836306 0.80598938
-0.020650169 0.02582949 0.80578411
-0.02031514 0.025830403 0.80581325
-0.0162916 0.025839195 0.80609524
-0.015948974 0.025828253 0.80575448
-0.066338621 0.026042528 0.80184466
-0.06369859 0.026056368 0.80228341
-0.051473886 0.026131483 0.80464977
-0.04834199 0.026070131 0.80277234
-0.045380909 0.02609884 0.80366755
-0.044374015 0.02609759 0.80363262
-0.044026118 0.02608989 0.80339676
-0.039101496 0.026155049 0.80542028
-0.03605485 0.026136238 0.80485058
-0.035728864 0.026143121 0.80506349
-0.035071336 0.026153134 0.80537385
-0.034728788 0.026147906 0.80521387
-0.033065524 0.026159314 0.80557013
-0.032705631 0.026139963 0.80497515
-0.032384001 0.026151113 0.80531943
-0.032057174 0.026158249 0.80554014
-0.030033134 0.026149511 0.80527657
-0.02970726 0.026158035 0.80553997
-0.029033301 0.02615566 0.80546862
-0.028698808 0.026156697 0.80550146
-0.074091084 0.026399851 0.80250865
-0.066977315 0.026365003 0.80148447
-0.05247245 0.026463035 0.8045302
-0.052145522 0.026467286 0.80466086
-0.05179961 0.026461896 0.80449826
-0.051150762 0.026473138 0.80484277
-0.049044799 0.026422823 0.80332088
-0.048700284 0.026417548 0.8031618
-0.048367452 0.02641858 0.80319446
-0.048039261 0.026422177 0.80330509
-0.045075551 0.026451098 0.80419558
-0.044735711 0.026448319 0.80411232
-0.042371213 0.02643661 0.80376452
-0.041992962 0.02640938 0.80293781
-0.041720975 0.026449079 0.80414593
-0.038411189 0.026477551 0.80502272
-0.087209724 0.026756104 0.80308974
-0.086694568 0.026700571 0.8014248
-0.082278416 0.026677134 0.80074579
-0.079134531 0.026742872 0.80273736
-0.074579783 0.026789717 0.80416852
-0.073037177 0.026715951 0.80196106
-0.072731674 0.026726536 0.80228055
-0.072463751 0.026751092 0.8030194
-0.067323327 0.026703782 0.80162424
-0.061708279 0.026732093 0.80250096
-0.061391309 0.026739724 0.80273151
-0.055788487 0.026780548 0.80398214
-0.053714976 0.026749171 0.80304861
-0.053391334 0.026754707 0.80321622
-0.049401194 0.026769301 0.80367041
-0.048040241 0.026757486 0.80332083
-0.04608722 0.026789853 0.80430013
-0.045736726 0.026780892 0.80403227
-0.043075714 0.026793068 0.80440748
-0.042011924 0.026756052 0.80329961
-0.041721813 0.026784718 0.80416137
-0.087216347 0.027092937 0.80315012
-0.086781994 0.027061913 0.80223238
-0.081916191 0.027001562 0.8004697
-0.08074674 0.027057001 0.80212063
-0.078208528 0.027104495 0.80354327
-0.068458848 0.027090553 0.80318004
-0.068122707 0.027090019 0.80316585
-0.067713119 0.027060127 0.80228126
-0.067371614 0.027057283 0.80219859
-0.06509804 0.027085206 0.8030377
-0.064125143 0.027098423 0.80343437
-0.063138068 0.027105972 0.8036629
-0.061708212 0.027066521 0.80249941
-0.061111197 0.02709843 0.80344856
-0.060762733 0.027092375 0.80327052
-0.060431398 0.027093932 0.8033182
-0.058443666 0.027103769 0.80361885
-0.057791617 0.027112138 0.8038699
-0.057100542 0.02710218 0.80357754
-0.056748804 0.02709415 0.80334091
-0.056423437 0.027098691 0.80347699
-0.054763142 0.027105665 0.80369085
-0.054405764 0.0270945 0.80336124
-0.053696182 0.027074363 0.80276692
-0.049746536 0.027109889 0.80383652
-0.087551959 0.02742797 0.80315441
-0.087059453 0.027378399 0.80170476
-0.081739925 0.027387988 0.80201596
-0.081453666 0.027404172 0.80249172
-0.081106484 0.027399912 0.80236882
-0.080444939 0.027402461 0.80244714
-0.08008568 0.027394004 0.80220139
-0.079847343 0.027427018 0.80316997
-0.067778565 0.027420986 0.803056
-0.06544283 0.027424114 0.80315894
-0.062410515 0.027415618 0.80292434
-0.062063195 0.02741003 0.80276227
-0.061429337 0.027425807 0.80322742
-0.054365106 0.027408801 0.80276018
-0.053662725 0.027391836 0.80226606
-0.084644005 0.027687863 0.80100209
-0.073774703 0.027744653 0.80270541
-0.073437802 0.02774379 0.80268222
-0.085052423 0.028046312 0.80170137
-0.084693491 0.028038142 0.80146974
-0.084349759 0.028034959 0.80138063
-0.084066398 0.028051896 0.80186671
