# .PCD v0.7 - Point Cloud Data file format
VERSION 0.7
FIELDS x y z
SIZE 4 4 4
TYPE F F F
COUNT 1 1 1
WIDTH 58
HEIGHT 1
VIEWPOINT 0 0 0 1 0 0 0
POINTS 58
DATA ascii
0.70827746 -0.11701471 0.18228509
0.70405394 -0.13071041 0.1825245
0.70323294 -0.13339598 0.18193312
0.70166719 -0.138493 0.18147948
0.70049483 -0.14229538 0.18153161
0.69942075 -0.1457763 0.18164404
0.69807351 -0.15013999 0.18187262
0.69689202 -0.15396637 0.18207796
0.69562566 -0.15807319 0.18213747
0.69433618 -0.16225222 0.1822823
0.69310325 -0.16625124 0.18232906
0.69270056 -0.16748382 0.18437807
0.69210988 -0.16940206 0.18433219
0.69207269 -0.16959375 0.18236937
0.69136727 -0.17187224 0.18266118
0.69133753 -0.1719054 0.18441059
0.69054717 -0.17452861 0.18279465
0.69048589 -0.17466632 0.18447971
0.68942338 -0.1781746 0.1828108
0.68916976 -0.1789345 0.18455075
0.68824202 -0.1820059 0.18286629
0.68811315 -0.18236057 0.18461525
0.68719023 -0.18535219 0.18470724
0.68705076 -0.18587025 0.18290162
0.68574446 -0.19010681 0.18296215
0.68558484 -0.19055608 0.18485756
0.68468177 -0.19355962 0.18283433
0.68443269 -0.19430478 0.18457663
0.68340838 -0.1976376 0.18432514
0.68191552 -0.20247817 0.18442585
0.68073756 -0.20628193 0.18494013
0.67955017 -0.21012498 0.18520696
0.67821497 -0.21445905 0.18517019
0.67702132 -0.21831396 0.18567672
0.67606401 -0.22142333 0.18559948
0.67533618 -0.22377929 0.18574257
0.6745277 -0.22639476 0.18596835
0.67324007 -0.23057102 0.18602623
0.6721248 -0.23418435 0.18618135
0.67089629 -0.23816484 0.18633942
0.67045504 -0.23952678 0.18827771
0.66967678 -0.24204759 0.1883942
0.66961014 -0.24232765 0.18662767
0.66842282 -0.24617633 0.18674453
0.66830194 -0.24650556 0.18848497
0.6673674 -0.24959785 0.18684074
0.66708773 -0.25044188 0.18857643
0.66589898 -0.25429621 0.18866035
0.66584122 -0.25454563 0.18695666
0.66469449 -0.2582649 0.18700489
0.66450852 -0.25880435 0.18876864
0.66374308 -0.26137599 0.18634854
0.6634835 -0.26214403 0.18839286
0.6621694 -0.26640567 0.188454
0.6609273 -0.27043217 0.1885643
0.65969926 -0.2743665 0.18996574
0.65471643 -0.29055658 0.18937504
0.65394783 -0.29304159 0.18962544
