# .PCD v0.7 - Point Cloud Data file format
VERSION 0.7
FIELDS x y z
SIZE 4 4 4
TYPE F F F
COUNT 1 1 1
WIDTH 58
HEIGHT 1
VIEWPOINT 0 0 0 1 0 0 0
POINTS 58
DATA ascii
0.68468177 -0.19355963 0.18283434
0.68574446 -0.19010681 0.18296216
0.6870507 -0.18587026 0.18290162
0.68824202 -0.18200591 0.18286629
0.68942338 -0.17817461 0.18281081
0.69054717 -0.17452861 0.18279466
0.69136727 -0.17187226 0.18266119
0.69207275 -0.16959377 0.18236938
0.69310325 -0.16625124 0.18232906
0.69433618 -0.16225222 0.1822823
0.69562566 -0.1580732 0.18213749
0.69689202 -0.15396638 0.18207797
0.69807351 -0.15014 0.18187262
0.69942081 -0.1457763 0.18164405
0.70049483 -0.14229539 0.18153162
0.70166725 -0.13849302 0.18147951
0.70323294 -0.133396 0.18193313
0.704054 -0.13071042 0.1825245
0.7082774 -0.11701471 0.1822851
0.66374302 -0.26137599 0.18634856
0.66469449 -0.2582649 0.18700489
0.66584122 -0.25454566 0.18695666
0.66736734 -0.24959788 0.18684076
0.66842282 -0.24617635 0.18674454
0.6696102 -0.24232768 0.18662767
0.67089629 -0.23816486 0.18633942
0.67212474 -0.23418435 0.18618135
0.67324007 -0.23057103 0.18602626
0.6745277 -0.22639477 0.18596838
0.67533624 -0.22377932 0.18574259
0.67606395 -0.22142334 0.18559949
0.67702132 -0.21831398 0.18567674
0.67821497 -0.21445906 0.1851702
0.67955017 -0.210125 0.18520698
0.68073756 -0.20628195 0.18494014
0.68191552 -0.20247819 0.18442588
0.68340838 -0.19763762 0.18432516
0.68443269 -0.19430479 0.18457665
0.68558484 -0.19055609 0.18485758
0.68719023 -0.18535221 0.18470725
0.68811321 -0.1823606 0.18461527
0.68916976 -0.17893451 0.18455075
0.69048595 -0.17466632 0.18447973
0.69133753 -0.17190541 0.18441059
0.69210988 -0.16940206 0.18433221
0.69270056 -0.16748382 0.18437809
0.65394783 -0.29304159 0.18962546
0.65471643 -0.29055661 0.18937506
0.65969926 -0.2743665 0.18996575
0.66092736 -0.2704322 0.18856432
0.66216946 -0.26640573 0.188454
0.6634835 -0.26214406 0.18839288
0.66450852 -0.25880438 0.18876864
0.66589904 -0.25429627 0.18866037
0.66708779 -0.25044191 0.18857644
0.66830194 -0.24650559 0.18848498
0.66967678 -0.24204762 0.18839422
0.67045498 -0.23952678 0.18827772
