# .PCD v0.7 - Point Cloud Data file format
VERSION 0.7
FIELDS x y z
SIZE 4 4 4
TYPE F F F
COUNT 1 1 1
WIDTH 1375
HEIGHT 1
VIEWPOINT 0 0 0 1 0 0 0
POINTS 1375
DATA ascii
0.03514633 0.01001818 0.83114308
0.035482217 0.010015238 0.83089888
0.035803411 0.010008245 0.83031857
0.060832199 0.010027504 0.83189732
0.061688766 0.010054096 0.83410269
0.062337007 0.010046518 0.83347332
0.063570462 0.010021922 0.83143127
0.068306588 0.010055965 0.83425027
0.075663999 0.010063287 0.83484858
0.076311931 0.010056952 0.83432209
0.092442602 0.00999586 0.82923079
0.10568746 0.010005764 0.83003312
0.11250517 0.0099963136 0.82923937
0.16707098 0.010051517 0.83378327
0.16728351 0.010043366 0.83310735
-0.090897799 0.010400856 0.83386695
0.010227891 0.01037928 0.83233017
0.011584457 0.010351994 0.8301425
0.024401249 0.010360345 0.83081323
0.034502637 0.010379217 0.83232361
0.037498925 0.010344751 0.82955819
0.060736541 0.010357858 0.83058912
0.061675791 0.010399495 0.83392721
0.069377296 0.010407762 0.83458048
0.092443742 0.010341614 0.82924098
0.11121538 0.010350724 0.82994109
0.11224724 0.010350109 0.82989019
0.11250646 0.010342118 0.82924891
-0.090899743 0.010748691 0.83388466
0.010227095 0.01072525 0.83226556
0.024342559 0.010680768 0.82881492
0.024703525 0.010687537 0.8293401
0.03057893 0.010687944 0.82937002
0.036743477 0.010671782 0.8281129
0.037131302 0.010684091 0.82906783
0.037528567 0.010698863 0.8302139
0.060326517 0.010692659 0.82971102
0.066777624 0.010729092 0.83252984
0.075654842 0.010757837 0.83474743
0.080212943 0.010715974 0.83149141
0.09268976 0.010715685 0.83144772
-0.090819187 0.01108647 0.8331455
0.009893816 0.011087119 0.83340001
0.010228223 0.011073247 0.83235741
0.011912341 0.011027134 0.82889163
0.016834596 0.011084709 0.8332203
0.03053873 0.011019015 0.82827967
0.035018485 0.011016917 0.8281197
0.037112433 0.011023942 0.82864648
0.077071182 0.011059311 0.83125621
0.080132797 0.011051457 0.83066052
0.093449503 0.011029158 0.82895958
0.16665715 0.011067302 0.83171791
0.1673329 0.011043126 0.8299008
-0.09110149 0.011425601 0.83254874
0.010229148 0.011421096 0.83243281
0.011548568 0.011354384 0.82757097
0.016834864 0.011432067 0.83323359
0.01716505 0.011420776 0.83241075
0.030159302 0.011351219 0.82733822
0.059915159 0.011371724 0.82880419
0.060274865 0.011374423 0.82900047
0.063343912 0.011429479 0.833009
0.093677253 0.011360377 0.82791698
0.094695978 0.011358354 0.82776743
0.095773935 0.0113634 0.82813305
0.096110441 0.011362361 0.82805657
0.10428856 0.011388183 0.82992178
0.1047164 0.01139708 0.83056945
0.16685236 0.011403798 0.83096009
0.16733457 0.011389378 0.82990909
-0.09071961 0.01176816 0.83223176
0.011539764 0.011690286 0.82694012
0.011891413 0.01169729 0.82743561
0.017502552 0.011761358 0.83196825
0.017822938 0.011744067 0.8307451
0.023947554 0.011692532 0.82709879
0.030499103 0.011694066 0.82720476
0.080475785 0.011743363 0.83062595
0.16753639 0.011749675 0.83090997
-0.090988964 0.012104745 0.83152008
0.011215311 0.012056426 0.82842302
0.011538543 0.012033571 0.82685268
0.011895191 0.01204588 0.82769859
0.017147807 0.012102282 0.83157456
0.023958556 0.01204269 0.82747883
0.030497208 0.012037992 0.82715327
0.080680259 0.012068333 0.82916802
0.16753805 0.012096357 0.83091825
0.167548 0.012072072 0.8292498
0.16756776 0.012048594 0.82763672
-0.090990923 0.01245164 0.83153778
-0.090556599 0.012439614 0.83073604
0.011879143 0.012374038 0.82658195
0.02396957 0.01239317 0.82785916
0.058928046 0.012418197 0.82949638
0.11745528 0.012427543 0.82999045
0.11772735 0.012419725 0.82946736
0.1676769 0.012401863 0.82817572
-0.090857722 0.012779539 0.83032036
0.011529742 0.012712911 0.82622212
0.02359229 0.012720664 0.82672518
0.057705022 0.012722855 0.82683307
0.058050081 0.012722963 0.82683945
0.058515899 0.01274938 0.82855564
0.08129666 0.012747735 0.82840335
0.10417351 0.012757874 0.8290059
0.10455131 0.012761794 0.82925969
0.1167853 0.012738239 0.82769644
0.11745661 0.012773701 0.82999974
0.11772869 0.012765665 0.82947665
0.16751388 0.012761211 0.82908082
0.16757108 0.012739241 0.82765305
-0.090817474 0.013119852 0.8299523
0.011519366 0.01304542 0.82547873
0.023269981 0.013077577 0.82751256
0.02356212 0.013048428 0.82566792
0.058903288 0.013104017 0.82914758
0.079950728 0.013042418 0.8252061
0.080480449 0.013072589 0.82711422
0.080859937 0.013078204 0.82746863
0.081297696 0.013093155 0.82841378
0.10439552 0.013087934 0.82802391
0.11767857 0.013105882 0.82912344
0.16721131 0.013083335 0.82758331
0.16745125 0.013075088 0.82706112
-0.090775125 0.013459546 0.82956511
0.011507418 0.013375483 0.82462257
0.023241773 0.013406105 0.82650936
0.023528591 0.013373401 0.82449299
0.023883807 0.013379955 0.82489687
0.0559946 0.013414928 0.82701868
0.079170272 0.013370713 0.82424444
0.079591013 0.01338369 0.82504362
0.081298731 0.013438584 0.82842422
0.099540196 0.013383758 0.82499558
0.10468785 0.013426298 0.82760423
0.11720099 0.013436428 0.82819319
0.16760269 0.013404538 0.82610488
-0.090661235 0.013788038 0.82852405
0.0094350288 0.013703092 0.82366145
0.010806977 0.013702196 0.82360792
0.01115662 0.013710187 0.82408828
0.011836741 0.01370259 0.82363176
0.05562637 0.013753721 0.82666856
0.075363591 0.013709224 0.82395267
0.077767782 0.013709253 0.82394862
0.07883963 0.013716479 0.82438034
0.079171285 0.013714405 0.82425487
0.080084838 0.013753287 0.82659
0.080388285 0.013746259 0.82616675
0.080888502 0.013772794 0.8277607
0.081299767 0.013784022 0.82843465
0.10503922 0.013772103 0.82765257
0.1053081 0.013762139 0.82705277
0.11694518 0.013751612 0.82638544
-0.090677992 0.014136029 0.828677
0.0087550245 0.014056437 0.8242566
0.0090975417 0.014055055 0.82417566
0.011507789 0.014063124 0.82464927
0.021441149 0.014043227 0.82348168
0.022121284 0.014039387 0.82325625
0.022501152 0.014062427 0.82460713
0.022847388 0.014064072 0.82470351
0.054554041 0.014088164 0.82608157
0.079191417 0.0140615 0.82446432
0.081643835 0.014129072 0.82842088
0.10519105 0.014091212 0.82613337
0.10528354 0.014057566 0.82415974
0.10627856 0.014052808 0.82387769
0.11517252 0.014090081 0.82603645
-0.090679951 0.014481785 0.8286947
-0.090304218 0.014476949 0.82841945
0.0080707734 0.014404469 0.82451928
0.021082753 0.014375912 0.82288444
0.021434609 0.014381959 0.82323045
0.032834135 0.014417409 0.82525265
0.03315834 0.014408873 0.82476377
0.077380113 0.014387808 0.82347846
0.078512646 0.014406675 0.82455564
0.081740625 0.014491493 0.8294028
0.10514966 0.014429903 0.82580817
0.10537596 0.014413755 0.82488298
0.10652234 0.014382772 0.82310557
0.10683822 0.014379091 0.8228938
0.11486571 0.014439178 0.82630849
-0.090264 0.014815682 0.82805026
0.007726897 0.014747346 0.82448149
0.021076076 0.014714121 0.82262373
0.033134222 0.014741804 0.82416379
0.052169058 0.014783622 0.82647628
0.052590415 0.014805287 0.82768685
0.052883916 0.014790912 0.8268826
0.053203393 0.014783939 0.82649225
0.07740096 0.01473497 0.82370013
0.10562884 0.014744893 0.82417113
0.11470491 0.014762955 0.82515168
0.16842349 0.014794284 0.82674628
-0.090138219 0.015139736 0.82689619
0.0070273853 0.015064087 0.82301742
0.0073727169 0.015069066 0.82328957
0.020733679 0.015057129 0.8226372
0.021065842 0.015049573 0.82222426
0.033478271 0.015085512 0.82417959
0.051426906 0.015112335 0.82562059
0.051782437 0.015115689 0.82580322
0.052169796 0.015128232 0.82648778
0.052591156 0.015150402 0.82769841
0.097924404 0.015119223 0.82587773
0.098161928 0.01510279 0.82497895
0.16868173 0.015131316 0.82631958
-0.090479761 0.015483874 0.82686448
0.0070298058 0.015412324 0.82330114
0.021393104 0.015381162 0.82163608
0.02172059 0.015370661 0.82107502
0.022054881 0.015365227 0.82078463
0.036883932 0.015417084 0.82354301
0.037547331 0.015407696 0.82304072
0.050888665 0.015397611 0.82248217
0.051372528 0.01544003 0.82474738
0.072825462 0.015397779 0.82244247
0.073059037 0.015374796 0.82121408
0.097402319 0.015435296 0.82437414
0.097663715 0.0154223 0.82367891
0.097956598 0.01541435 0.82325321
0.11300812 0.015407259 0.82282364
0.11352437 0.015430789 0.82407904
-0.090407729 0.015815958 0.82620591
0.006682829 0.015746035 0.82281339
0.021701422 0.015698913 0.82035035
0.039652921 0.015769733 0.82403553
0.039954439 0.015753239 0.82317322
0.050915889 0.015748762 0.82292199
0.051373258 0.015783928 0.82475889
0.073694788 0.01570664 0.8206687
0.097092912 0.01572879 0.82175529
0.0973107 0.01570864 0.82070148
0.1130094 0.015750451 0.82283276
0.11362275 0.015787998 0.82479304
0.11384075 0.015770549 0.82388031
0.16806509 0.015827524 0.82668167
0.16826275 0.015813665 0.825957
0.16871852 0.015791778 0.82481205
-0.090352573 0.016150512 0.82570159
0.0066797645 0.016081503 0.82243633
0.036899991 0.016110405 0.82390118
0.037222702 0.016101506 0.82344562
0.038914718 0.016091796 0.82294697
0.039268218 0.016096145 0.82316887
0.046443786 0.016086709 0.82267559
0.046805244 0.016093126 0.82300317
0.047190662 0.016107626 0.82374418
0.051318094 0.01611029 0.8238731
0.051768251 0.016143611 0.82557648
0.072970584 0.016039835 0.82021946
0.073333383 0.016044417 0.82045281
0.10459557 0.016065966 0.82145566
0.11286705 0.016073199 0.82179618
0.16800971 0.016166996 0.82640922
0.16812688 0.016112102 0.82360137
-0.090663359 0.016488617 0.82539445
-0.090203948 0.016467581 0.82434303
0.0063296864 0.016404953 0.821473
0.04404632 0.01643029 0.8227182
0.044786379 0.016450288 0.82371843
0.073271632 0.016372545 0.81976175
0.11169311 0.016394377 0.82072794
0.16815513 0.016492112 0.82542861
0.16822389 0.016465114 0.82407647
0.16877189 0.016485039 0.82507282
-0.090155967 0.016802274 0.82390428
0.0063262465 0.016738139 0.82102686
0.0066597783 0.016716717 0.81997615
0.073209986 0.016700119 0.81907183
0.11179822 0.016752265 0.82150012
0.11218721 0.0167592 0.82183892
0.11289934 0.016763166 0.8220309
0.16745584 0.016800802 0.82368463
0.16881512 0.016833484 0.82528406
0.0059815263 0.017072672 0.82066309
0.0063183554 0.017058939 0.82000303
0.11119299 0.017054439 0.81956524
0.11170943 0.017081149 0.82084751
0.11218848 0.017101996 0.82184803
0.11254451 0.01710402 0.82194406
0.16728657 0.017127024 0.82285196
-0.090474375 0.017484318 0.82367295
0.0059816223 0.017414905 0.82067662
0.072463818 0.017367614 0.81835699
0.10275483 0.017413914 0.82043731
0.10321312 0.017433545 0.82136089
0.16728821 0.017470399 0.82285994
0.16838962 0.017442169 0.82152617
0.16869134 0.017437909 0.82132453
-0.090455003 0.017823858 0.82349628
0.006318558 0.017742865 0.82003003
0.072428152 0.017699949 0.817954
0.093866169 0.017756788 0.8205108
0.094179206 0.017751319 0.82025683
-0.090386026 0.018153287 0.82286799
0.0066581327 0.018078916 0.81977469
0.0069923368 0.018059954 0.81891501
0.020307917 0.018068179 0.81928706
0.072355613 0.018022764 0.81713456
0.091972113 0.018062687 0.8188802
0.092831992 0.01809722 0.82044333
0.093482301 0.018090693 0.82014489
0.093903795 0.01810604 0.82083941
0.1086997 0.018062593 0.81881237
0.10910796 0.018073665 0.81931299
0.10947105 0.018077208 0.81947219
0.11022668 0.018089065 0.82000697
0.11054449 0.018085118 0.81982672
0.0066455971 0.018385818 0.81823152
0.019628929 0.018413028 0.8194418
0.072770454 0.018382069 0.81796825
0.091973223 0.018404223 0.8188898
0.092732526 0.01841943 0.81956398
0.10623769 0.018391438 0.81826609
0.10688841 0.018385997 0.81802136
0.10720678 0.018382104 0.81784678
0.10749438 0.018372973 0.8174392
0.10799039 0.018399414 0.81861418
0.1083682 0.018405609 0.81888843
0.16096608 0.018366471 0.81693679
-0.090655401 0.018824019 0.82219672
-0.090263106 0.018813711 0.82174826
0.0066411612 0.01871426 0.81768572
0.16829668 0.018802408 0.82107234
0.1685154 0.018788582 0.82046747
0.16880159 0.01878232 0.82019287
0.16904479 0.018771309 0.81971097
-0.090557128 0.019145984 0.8213051
0.016181493 0.019056631 0.81775743
0.016541043 0.019078365 0.81868994
0.016844744 0.019036107 0.81687647
0.017220002 0.019074785 0.81853616
0.017565392 0.019079521 0.8187393
0.10453647 0.019074474 0.81830865
0.10513496 0.019059271 0.81765366
0.16913131 0.019122994 0.82013035
-0.090482138 0.019472217 0.82062459
0.0066333041 0.019372743 0.81671888
0.016541306 0.0194198 0.81870288
0.01682907 0.019358447 0.81611627
0.017177217 0.019367605 0.81650227
0.065233819 0.019393753 0.81752676
0.088691965 0.019382492 0.81697494
0.089017317 0.019379184 0.81683421
0.089329705 0.019373089 0.81657606
0.090572432 0.019420596 0.81857461
0.15694422 0.019439436 0.81909388
0.16503657 0.019426307 0.81851012
0.16917464 0.019470058 0.82034034
-0.090473481 0.019812409 0.82054573
-0.090016179 0.019787095 0.81949914
0.0066342507 0.019715872 0.81683582
0.017151847 0.019678716 0.81529635
0.017473636 0.019658584 0.81446218
0.072948314 0.019701591 0.81614196
0.085303977 0.019727042 0.81715447
0.085708931 0.019741861 0.81776708
0.086056486 0.019743398 0.81782943
0.086323604 0.019726537 0.81712979
0.086675338 0.01972907 0.8172335
0.087907441 0.019699827 0.81601709
0.089822978 0.019747047 0.81796676
0.12244987 0.019674474 0.81482416
0.15703361 0.019792307 0.81956029
0.16182692 0.01979294 0.81956798
0.16573876 0.019810796 0.82029337
0.16899282 0.019831067 0.82112169
0.1691763 0.019812416 0.8203482
-0.090018146 0.020129154 0.81951666
0.0066353348 0.020059511 0.81696957
0.064485401 0.020054286 0.81667918
0.07321997 0.020022992 0.81537789
0.073488586 0.020003607 0.81458747
0.084201388 0.020048389 0.81637478
0.084736131 0.020094505 0.81825137
0.090295926 0.020117382 0.81916249
0.1403688 0.020098183 0.81816679
0.15714222 0.020148033 0.82012695
0.16077797 0.020131893 0.81945515
0.1632521 0.020141797 0.81984907
0.16430512 0.020145053 0.8199777
0.1646698 0.020147802 0.82008833
0.16510443 0.020159079 0.82054609
0.16549224 0.020164605 0.82076967
0.16586155 0.020167859 0.82090086
0.1665068 0.020163018 0.82070136
0.16674019 0.020149831 0.82016325
0.16758391 0.020127825 0.81926388
0.16894141 0.020167418 0.82087171
0.169378 0.020178614 0.8213262
-0.089983545 0.02046291 0.81920123
0.01982823 0.020316055 0.8136096
0.072051227 0.020320704 0.81369507
0.074242011 0.020363508 0.81540245
0.08304254 0.020354811 0.8150236
0.083417319 0.020363372 0.8153652
0.1506532 0.020491835 0.82022452
0.15100729 0.020493446 0.82028759
0.15256567 0.020472927 0.81945908
0.15393408 0.02047302 0.81945711
0.15724127 0.020502985 0.82064378
0.15754168 0.020497514 0.82042342
0.15785329 0.020493524 0.82026225
0.15811433 0.020482998 0.81983966
0.15835315 0.020469645 0.81930381
0.15858728 0.020455746 0.81874609
0.15896182 0.020459978 0.81891406
0.15935744 0.020466899 0.81918979
0.16158435 0.020489186 0.82007366
0.161964 0.020493923 0.82026184
0.16226764 0.020489041 0.82006514
0.16259854 0.02048761 0.82000655
0.16295049 0.020488836 0.82005429
0.16337137 0.020498704 0.82044792
0.1637093 0.020498144 0.8204242
0.16407393 0.020500921 0.82053405
0.16442758 0.02050232 0.82058871
0.1667721 0.020495834 0.82032001
0.16709073 0.020492923 0.82020223
0.16741022 0.020490129 0.82008916
0.16762774 0.020474888 0.81947792
0.168299 0.020473333 0.81941319
0.16894305 0.020510003 0.82087952
-0.090325192 0.020804416 0.81919956
0.064254194 0.020660615 0.81375039
0.064549811 0.020646702 0.81320143
0.07166031 0.020644886 0.81310809
0.074443415 0.020664902 0.81388754
0.074815117 0.020673882 0.81424004
0.075229019 0.02069439 0.81504655
0.081549644 0.020660533 0.8136906
0.082603745 0.020669702 0.81404805
0.083196223 0.020648327 0.81320375
0.13488752 0.020777335 0.81806588
0.13525493 0.020781361 0.81822282
0.13560934 0.02078337 0.81830043
0.135957 0.020784335 0.8183369
0.13664734 0.020785499 0.81837964
0.1370372 0.020792855 0.81866771
0.13740079 0.0207962 0.81879789
0.13773036 0.020794392 0.81872511
0.1380554 0.020791909 0.81862581
0.14195648 0.020813126 0.81944436
0.14542168 0.020819809 0.81969237
0.14573272 0.020815389 0.8195169
0.14679638 0.020820774 0.81972438
0.1471432 0.020821458 0.81974977
0.14749658 0.020823065 0.81981152
0.14782485 0.020821128 0.8197338
0.1481721 0.020821864 0.81976128
0.14853582 0.020824907 0.81987959
0.14889526 0.020827336 0.81997377
0.14962637 0.020833867 0.82022786
0.14996721 0.020833675 0.8202188
0.15027441 0.020828821 0.82002628
0.15133628 0.020833701 0.82021403
0.15164681 0.020829348 0.82004112
0.15228105 0.020822503 0.81976873
0.15262125 0.020822253 0.8197574
0.15296926 0.020823063 0.81978786
0.15331712 0.020823853 0.81981748
0.15364279 0.020821631 0.81972855
0.15428904 0.020816525 0.81952471
0.15454562 0.020805035 0.81907088
0.15524368 0.020806981 0.81914467
0.15562402 0.020812135 0.81934613
0.15599382 0.020815859 0.81949127
0.15646465 0.020833019 0.82016546
0.15817067 0.020832339 0.8201316
0.15843663 0.020822313 0.81973553
0.15911444 0.020821486 0.81970018
0.15949859 0.020826982 0.81991518
0.15980925 0.020822881 0.81975228
0.16024134 0.020834582 0.82021153
0.16057813 0.02083387 0.8201822
0.16093591 0.020835878 0.82025981
0.16120975 0.020827033 0.81991029
0.16232069 0.020837877 0.820333
0.16768868 0.020824257 0.81977576
0.16793996 0.020812998 0.81933117
0.16849123 0.020838885 0.82034898
-0.090238228 0.021125553 0.81841046
0.06450177 0.020969972 0.81259584
0.071271375 0.02096902 0.81253809
0.072127223 0.021021068 0.81455272
0.075558424 0.021031206 0.81493419
0.075848177 0.02101738 0.81439728
0.076141022 0.021004532 0.81389827
0.079207316 0.021008067 0.81402457
0.081293695 0.021021172 0.81452513
0.081527099 0.020993855 0.81346536
0.082199052 0.020992283 0.81340194
0.082470872 0.020975187 0.8127383
0.082863405 0.020988809 0.81326485
0.083175942 0.020982139 0.81300521
0.083473451 0.020971749 0.81260127
0.1346157 0.021129334 0.81848925
0.13531934 0.021132588 0.81861222
0.1356657 0.021133352 0.81864023
0.13711713 0.021146545 0.81914502
0.13748221 0.02115014 0.81928277
0.1377971 0.02114602 0.8191216
0.13812181 0.021143422 0.81901944
0.138466 0.021143813 0.81903297
0.13879059 0.021141212 0.81893075
0.13914779 0.02114358 0.81902087
0.13950443 0.021145854 0.81910741
0.14018434 0.021145331 0.81908405
0.14058773 0.021154616 0.81944221
0.14095913 0.021159055 0.81961256
0.14132516 0.021162666 0.81975091
0.14165567 0.021160955 0.81968307
0.14234954 0.021162439 0.81973749
0.14267179 0.021159517 0.81962276
0.1429828 0.021154942 0.819444
0.14334004 0.021157214 0.81953049
0.14369661 0.021159375 0.81961268
0.14404617 0.0211605 0.8196547
0.14437898 0.021159161 0.81960124
0.14468724 0.021154238 0.81940907
0.1450718 0.02116047 0.81964892
0.14611506 0.021162992 0.81974208
0.14646207 0.021163719 0.81976867
0.15466066 0.021162361 0.81968033
0.15497293 0.0211583 0.81952161
0.15533106 0.021160506 0.81960553
0.16804264 0.021167671 0.81983197
-0.090142518 0.021443948 0.81754202
-0.037031095 0.021280995 0.81155264
-0.03670403 0.021287441 0.81179953
-0.035678413 0.021281024 0.81155771
0.0133661 0.021298796 0.81230336
0.065474495 0.021294562 0.8120569
0.065837502 0.021302521 0.81235939
0.07053151 0.021391362 0.81573349
0.070790723 0.021366989 0.814803
0.071025655 0.021335555 0.81360316
0.07642474 0.021328246 0.81330615
0.076752611 0.021325162 0.81318742
0.077101655 0.021327963 0.81329304
0.077440485 0.021327926 0.81329042
0.077866718 0.021351855 0.81420171
0.078225225 0.021357086 0.81439996
0.078523025 0.021345768 0.81396723
0.078903459 0.021356916 0.81439108
0.07944832 0.021320956 0.81301737
0.079754546 0.021312235 0.81268358
0.080195382 0.021339405 0.81371844
0.083790131 0.021304827 0.81238616
0.086517066 0.021309264 0.812545
0.13190602 0.021474106 0.81863481
0.13223317 0.021471787 0.81854481
0.13262767 0.021480383 0.81887096
0.13298741 0.021483324 0.81898153
0.13331008 0.021480273 0.81886363
0.13366471 0.021482376 0.81894219
0.13401431 0.021483662 0.81898963
0.1343341 0.021480175 0.81885511
0.13471112 0.021485832 0.81906921
0.13503247 0.021482605 0.81894463
0.13538881 0.021484943 0.81903213
0.13572577 0.021484205 0.81900245
0.13608243 0.02148658 0.81909144
0.13644035 0.021489142 0.81918746
0.138501 0.021490762 0.8192398
0.13987066 0.021491176 0.81924933
-0.09008655 0.021771224 0.81703389
-0.037351917 0.021609128 0.81117404
-0.034992095 0.021613054 0.81132829
-0.034652613 0.021612182 0.81129652
-0.033972476 0.021609642 0.81120306
0.0090215132 0.021770122 0.81729096
0.0093635041 0.02177356 0.81742013
0.010008967 0.021696242 0.8145175
0.013705887 0.021639397 0.81238335
0.014386281 0.021644603 0.81257868
0.015077731 0.021665223 0.81335264
0.065246709 0.021669718 0.81343687
0.065576993 0.021666843 0.81332785
0.066517279 0.021641936 0.81238985
0.0668028 0.02162477 0.81174445
0.067528158 0.021640405 0.81232917
0.067958608 0.021669712 0.81342828
0.069237903 0.021645742 0.81252414
0.069543526 0.021635475 0.81213772
0.070051126 0.021687841 0.81410223
0.070478737 0.021715056 0.81512278
0.078138091 0.021672333 0.81349242
0.12628983 0.02178899 0.81766766
0.1266429 0.021791065 0.8177439
0.12702447 0.021798022 0.81800342
0.12838754 0.021797759 0.81798714
0.12872614 0.021797327 0.81796932
0.12909721 0.021802379 0.81815732
0.12945437 0.021805063 0.81825644
0.12981127 0.021807689 0.81835341
0.13014577 0.021806547 0.81830895
0.13053617 0.021814754 0.81861532
0.13088015 0.021815179 0.81862962
0.13123846 0.021817986 0.81873339
0.13157693 0.021817487 0.81871307
-0.089973189 0.022083992 0.81600541
-0.089650683 0.022088362 0.81616873
-0.03366274 0.02196613 0.81188571
-0.032651305 0.02196849 0.81197572
-0.031610146 0.021950357 0.81130826
0.0090216585 0.022111028 0.81730425
0.009363655 0.022114521 0.81743336
0.010019351 0.022058496 0.81536257
0.010341479 0.022021059 0.81397879
0.010662575 0.021983875 0.81260431
0.010990376 0.021962373 0.81180954
0.014045516 0.021979718 0.81245041
0.014729728 0.021990497 0.81284869
0.015422993 0.022013251 0.81368959
0.066437148 0.021954013 0.8114109
0.067133807 0.021960674 0.81165498
0.10149525 0.022076614 0.81581068
0.12215231 0.022121653 0.81738192
0.1224912 0.022121297 0.81736714
0.1228893 0.022131605 0.8177464
0.12320934 0.022127837 0.81760561
0.1249005 0.022125417 0.81750816
0.12529723 0.022135274 0.8178708
0.12566179 0.02213941 0.81802195
0.12599902 0.02213872 0.81799489
0.12737457 0.022140631 0.81805903
0.12770382 0.022138562 0.81798095
0.12806679 0.022142336 0.81811881
-0.089981191 0.022426147 0.81607747
-0.032316219 0.022309087 0.81205797
-0.031605337 0.022285033 0.81118417
0.010335909 0.022348186 0.81354046
0.019108817 0.022301739 0.81184769
0.08916226 0.022394164 0.81504261
0.099135213 0.022421358 0.8159911
0.10125746 0.022439351 0.81663704
0.10163122 0.022446705 0.81690323
0.10640962 0.022448905 0.81696206
0.10680427 0.022460269 0.81737405
0.10712431 0.022455918 0.81721419
0.11085869 0.022453168 0.81709707
0.11121966 0.022457264 0.81724453
0.11154826 0.022454817 0.81715393
0.111896 0.022456229 0.8172037
0.11221042 0.022450963 0.81701052
0.11256915 0.022454565 0.81714004
0.11288833 0.022450285 0.81698269
0.1132575 0.022455938 0.81718689
0.11357999 0.022452332 0.81705403
0.11394393 0.022456916 0.81721932
0.11428343 0.02245667 0.81720871
0.11458728 0.022449439 0.81694406
0.11531035 0.022457577 0.81723702
0.115637 0.022454835 0.81713569
0.11600857 0.022460809 0.81735146
0.11632855 0.022456786 0.81720346
0.1166543 0.022453897 0.81709671
0.117358 0.022458157 0.81724852
0.11773621 0.0224653 0.81750685
0.1180595 0.022461949 0.81738335
0.11843339 0.022468219 0.81760991
0.11874595 0.02246285 0.81741291
0.11905117 0.022456128 0.81716675
0.11937465 0.022452878 0.81704682
0.11975587 0.022460476 0.81732172
0.12009965 0.022461029 0.8173402
0.12043793 0.022460554 0.8173213
0.12081295 0.022466909 0.81755102
0.12113941 0.022464229 0.81745183
0.12148726 0.022465516 0.81749707
0.12182299 0.02246456 0.81746072
0.12353641 0.022466186 0.8175118
0.1238706 0.022464965 0.81746572
0.12420107 0.022463078 0.81739545
0.12457454 0.022468954 0.8176077
-0.089983173 0.022766842 0.81609499
-0.031967171 0.022639913 0.81178743
-0.031599775 0.022619065 0.81104076
-0.031246917 0.022608284 0.81065512
0.016376775 0.022604031 0.8105582
0.01670971 0.022597574 0.81032652
0.089916304 0.022752741 0.81571597
0.090222523 0.022744222 0.81540912
0.091910928 0.022741484 0.81530398
0.098547965 0.022783011 0.81676531
0.098901175 0.022785941 0.81686884
0.099220075 0.022780973 0.81668931
0.10056345 0.022776788 0.81653327
0.10095625 0.022788614 0.81695569
0.10199066 0.022791445 0.81705266
0.10233973 0.022793323 0.81711853
0.1026496 0.022786491 0.81687206
0.10298585 0.022785537 0.81683636
0.10329024 0.022777567 0.81654912
0.10363992 0.022779599 0.81662041
0.10401123 0.02278636 0.81686133
0.10436227 0.022788649 0.81694186
0.10470526 0.022789171 0.81695902
0.10504163 0.022788255 0.81692463
0.10535695 0.02278279 0.81672716
0.10569844 0.022783002 0.81673324
0.10604815 0.022784978 0.81680256
0.1074467 0.022792695 0.81707299
0.10779998 0.022795362 0.8171671
0.10848172 0.022795435 0.81716651
0.10877869 0.022786273 0.81683654
0.10911501 0.022785386 0.81680322
0.10948937 0.022792423 0.81705385
0.10984021 0.022794535 0.817128
0.11049268 0.022788571 0.8169111
0.11495808 0.022795994 0.81715655
0.11700308 0.022796109 0.81715113
-0.089922443 0.023091447 0.81554377
0.085503846 0.023094818 0.8158071
0.089605734 0.023100326 0.8159852
0.089960687 0.023104135 0.8161183
0.090261437 0.023094043 0.81576049
0.091289304 0.023096003 0.81582546
0.091634266 0.023097236 0.8158676
0.091988407 0.023100765 0.81599087
0.092313796 0.023097076 0.81585908
0.092696793 0.023107771 0.81623548
0.093052447 0.023111599 0.81636924
0.09337201 0.023106465 0.81618649
0.093668155 0.023095595 0.81580108
0.094014198 0.023097064 0.81585151
0.094392754 0.02310648 0.81618267
0.09471602 0.023102341 0.81603503
0.095099397 0.023112843 0.81640452
0.095409237 0.023105459 0.81614226
0.09576866 0.023110094 0.8163045
0.096106313 0.02310946 0.81628066
0.096464664 0.023113791 0.81643212
0.09716633 0.023118781 0.81660551
0.097486608 0.023114005 0.81643534
0.097818568 0.023112023 0.81636381
0.098167308 0.023114005 0.81643236
0.099520072 0.023111999 0.81635547
0.09985438 0.023110606 0.8163048
0.10022826 0.023118349 0.81657684
-0.089868814 0.023417441 0.81505686
-0.089432575 0.02339223 0.81418121
-0.031241342 0.023279717 0.81050915
0.083082713 0.023423312 0.81541485
0.083393402 0.02341512 0.81512833
0.083771124 0.023425739 0.81549668
0.08410795 0.023424882 0.81546551
0.084444247 0.023423886 0.81542951
0.084796414 0.023427282 0.81554633
0.085192412 0.02344271 0.81608212
0.085865892 0.023440845 0.81601453
0.087163769 0.023424014 0.81542313
0.087501951 0.023423558 0.81540585
0.088484898 0.02341385 0.81506371
0.088855907 0.02342209 0.81534922
0.089265667 0.023440445 0.81598681
0.090294398 0.023442613 0.81605798
0.090600714 0.023433859 0.81575185
0.090956353 0.02343788 0.81589043
-0.089712992 0.023716016 0.81364316
-0.031222889 0.023603501 0.81002975
0.01701238 0.023562115 0.80866498
0.01734772 0.023559971 0.80859125
0.01869431 0.023558749 0.80854869
0.025459863 0.023584764 0.8094368
0.071522318 0.023761392 0.81539619
0.071840264 0.023754159 0.8151468
0.076939277 0.023755146 0.8151626
0.077276908 0.023754498 0.81513911
0.077634737 0.023760039 0.81532794
0.080662921 0.023751164 0.81501192
0.081023313 0.023757234 0.81521893
0.0813642 0.02375756 0.81522882
0.081719875 0.023762181 0.81538606
0.082073592 0.023766195 0.81552249
0.082400627 0.023762483 0.81539381
0.082760438 0.023768216 0.81558919
0.086132579 0.023760693 0.81531757
0.086470142 0.023760069 0.8152948
0.088185124 0.023764336 0.81543428
-0.090047449 0.024053913 0.81359744
-0.081887379 0.023949267 0.81010038
-0.031139046 0.023876745 0.80785388
-0.030811075 0.023883456 0.80808181
-0.030508814 0.023910463 0.8089965
0.017689481 0.023903476 0.80881363
0.018022425 0.023898119 0.80863225
0.018353567 0.023890615 0.80837816
0.067689873 0.024067618 0.81427187
0.068387322 0.024074225 0.81449324
0.069713168 0.024063217 0.81411618
0.070459999 0.024086555 0.81490356
0.071149789 0.024090132 0.81502223
0.072151206 0.024084268 0.81482029
0.074841984 0.02407594 0.81452894
0.075161926 0.024069687 0.81431615
0.075474665 0.024061194 0.81402755
0.075828888 0.024065942 0.81418699
0.076155044 0.02406178 0.81404501
0.076540127 0.02407619 0.81453121
0.077945895 0.024090985 0.8150267
0.078263558 0.024084207 0.81479615
0.078576624 0.02407608 0.81451988
0.078914627 0.024075629 0.81450337
0.079291187 0.024086898 0.81488335
0.079644173 0.024090936 0.81501865
0.079988055 0.024092199 0.81506014
0.080316901 0.024088943 0.81494862
-0.09000434 0.024381394 0.81320733
-0.078618154 0.024216231 0.80775714
0.0011755426 0.024203505 0.80757791
0.052388649 0.024392316 0.81382734
0.059186697 0.024398772 0.81402451
0.059512362 0.02439322 0.81383824
0.062252391 0.024403773 0.8141824
0.064920023 0.02438624 0.81358898
0.065324701 0.024410767 0.81440622
0.065952756 0.024392007 0.81377816
0.066665322 0.024404565 0.81419492
0.066988893 0.024398835 0.81400269
0.067317262 0.024394901 0.81387031
0.068354145 0.024401817 0.8140977
0.068685934 0.024399161 0.81400794
0.068996914 0.024389174 0.81367362
0.069373384 0.024402322 0.81411111
0.070044659 0.024399785 0.81402421
0.070762664 0.02441342 0.81447673
0.071102813 0.024413666 0.81448376
0.072447717 0.024409335 0.81433457
0.072803341 0.024414783 0.81451511
0.073142119 0.024414558 0.81450641
0.073470049 0.024410728 0.81437743
0.073811956 0.024411557 0.81440389
0.074159458 0.024414221 0.81449151
0.074503727 0.024415798 0.81454295
-0.090006329 0.024720937 0.81322479
-0.089565769 0.02469296 0.81230634
-0.038949277 0.024592724 0.80923563
0.0015116553 0.024534326 0.80739099
0.045935255 0.024725918 0.81366009
0.046934757 0.024716651 0.81335294
0.051681589 0.024717659 0.81337494
0.052059874 0.02473636 0.81398946
0.053038239 0.024718098 0.81338596
0.057434186 0.024713704 0.81322962
0.059832234 0.024724405 0.81357491
0.063540436 0.024716189 0.81329328
0.064542696 0.024710635 0.81310737
0.066308774 0.024737442 0.81398404
0.066648193 0.024737516 0.81398535
0.067285948 0.024722571 0.81349134
0.067629896 0.024724375 0.81354964
0.067965262 0.02472304 0.81350452
-0.089963257 0.02504795 0.8128351
-0.089379281 0.024979463 0.81061453
-0.084324114 0.024884036 0.80754417
-0.038918991 0.024910554 0.80860567
-0.038218331 0.024893139 0.80804253
-0.037855804 0.024876183 0.80749321
0.040818207 0.025045587 0.81304073
0.041150242 0.025041491 0.81290716
0.041470464 0.02503033 0.81254423
0.044561647 0.025055142 0.81334352
0.045223575 0.025046354 0.81305683
0.0455795 0.025055777 0.81336206
0.047909372 0.025033575 0.81263602
0.048277099 0.025048682 0.81312567
0.048612382 0.025046863 0.81306583
0.048957162 0.025049927 0.81316447
0.049307864 0.025055958 0.8133595
0.050947919 0.025029177 0.81248599
0.051328927 0.025049895 0.81315774
0.053370614 0.025053969 0.81328475
0.057103731 0.02505629 0.81335008
0.057787143 0.0250587 0.81342638
0.058123823 0.025057718 0.81339359
0.060121868 0.025042869 0.81290567
0.06180146 0.025037132 0.8127144
0.06383805 0.025038915 0.81276596
0.064190336 0.025044214 0.8129369
-0.089465566 0.025341818 0.81139654
-0.084253252 0.025199464 0.80686504
-0.037838787 0.025201336 0.80712944
-0.03747322 0.0251817 0.80650163
-0.031410683 0.025171166 0.80618197
-0.031067388 0.025165206 0.80599195
0.032322399 0.025363406 0.81238252
0.039094917 0.025365261 0.81243128
0.040119819 0.025371186 0.81261921
0.040450372 0.025366146 0.81245714
0.041807882 0.025368221 0.81252104
0.042142998 0.025366154 0.81245416
0.042507224 0.0253815 0.81294495
0.043181989 0.025379917 0.81289291
0.047245406 0.025379324 0.8128652
0.047563471 0.025368314 0.8125118
0.049619503 0.025380941 0.81291145
0.049944226 0.025373826 0.81268275
0.050627917 0.025377044 0.81278419
0.053655665 0.02536742 0.81246823
0.054023985 0.025381405 0.81291521
0.054351974 0.025376387 0.81275356
0.055036731 0.025379805 0.81286126
0.055353638 0.025369808 0.81254017
0.055660937 0.025355555 0.81208277
0.056036111 0.025372209 0.81261522
0.056382593 0.025375748 0.81272763
0.056729924 0.025379624 0.81285083
0.060452618 0.02537827 0.81279671
0.060749065 0.025360629 0.81223065
0.061090488 0.025361856 0.81226897
0.061444767 0.025368376 0.81247675
-0.089335889 0.025642836 0.81021988
-0.084359482 0.025567997 0.80788177
-0.037432674 0.025490163 0.8056283
-0.035740528 0.025480492 0.80532777
-0.035406217 0.025481412 0.80535787
-0.034400973 0.025482561 0.80539721
-0.034085672 0.025497755 0.8058784
-0.033754818 0.025501503 0.80599779
-0.033432633 0.025511939 0.80632865
-0.03308928 0.025506269 0.80615038
-0.032760371 0.025511732 0.80632401
-0.032415763 0.025504956 0.80611074
-0.032086097 0.025509916 0.80626845
-0.031749912 0.025509745 0.80626404
-0.031399973 0.0254984 0.80590636
0.023158826 0.025674593 0.81152862
0.023510056 0.025688918 0.81198114
0.023839124 0.025678968 0.81166637
0.024176735 0.02567837 0.81164718
0.030283583 0.025695182 0.81217206
0.030615889 0.025690075 0.81201023
0.030962266 0.025696758 0.81222099
0.031295113 0.025692189 0.81207621
0.031628013 0.025687762 0.81193578
0.03196587 0.02568741 0.81192416
0.03266003 0.025701245 0.81236058
0.032977637 0.025684994 0.81184638
0.033998325 0.02568946 0.81198615
0.034340411 0.02569228 0.81207472
0.034678083 0.025691774 0.81205821
0.037716031 0.025686871 0.81189835
0.038041398 0.02567815 0.81162208
0.038382806 0.025680315 0.81168991
0.03874018 0.025693033 0.81209129
0.039756551 0.025693851 0.81211531
0.040103778 0.02569952 0.81229389
0.043488164 0.025699422 0.81228411
0.043815155 0.025692698 0.81207091
0.044135846 0.025682414 0.81174517
0.050253998 0.025697717 0.81221503
0.05399701 0.025707318 0.81250894
-0.08937867 0.025993031 0.81060737
-0.088942796 0.025964454 0.80971813
-0.083881475 0.025861233 0.80652565
-0.06558542 0.025806507 0.80491215
-0.03708737 0.025819195 0.80542034
-0.036729623 0.025803659 0.80493671
-0.036399957 0.025807744 0.80506516
-0.036056336 0.025801919 0.80488449
-0.035064973 0.025812849 0.80522847
-0.034717165 0.025803734 0.80494511
-0.033067875 0.025825473 0.80562818
-0.032735299 0.025827944 0.8057062
-0.032064088 0.025828157 0.80571473
-0.03173887 0.025836721 0.80598283
-0.012604771 0.025855044 0.8065958
0.013351453 0.026008854 0.81141192
0.016049692 0.025998674 0.81109363
0.016389322 0.026001364 0.81117743
0.016730238 0.026005946 0.81132025
0.02282735 0.026020313 0.81176478
0.024517912 0.026019763 0.81174618
0.026184434 0.025995413 0.81098497
0.026534965 0.026007799 0.81137103
0.026884135 0.026018558 0.8117063
0.027229004 0.026024936 0.81190491
0.027558425 0.026016578 0.81164378
0.028905878 0.026011877 0.8114956
0.029259285 0.026025485 0.81191975
0.029592199 0.026020762 0.81177199
0.029931929 0.026022071 0.8118124
0.033298284 0.026009521 0.81141633
0.033647895 0.026018437 0.81169403
0.03499686 0.026015598 0.81160337
0.035333294 0.026014328 0.81156319
0.035676818 0.026018254 0.81168514
0.036670711 0.026003579 0.81122571
0.037014402 0.026007576 0.81134981
0.037380558 0.026027141 0.81195962
-0.074677609 0.026153604 0.80522454
-0.051473886 0.026131483 0.80464977
-0.032705631 0.026139963 0.80497515
-0.012593585 0.026167873 0.80587894
-0.012267867 0.026189344 0.80654061
-0.00017112272 0.026336813 0.81109577
0.013009611 0.026339311 0.8111763
0.015034923 0.026334945 0.81104147
0.015365264 0.026321977 0.81064194
0.01571268 0.026338186 0.81114107
0.016724883 0.026335577 0.81106031
0.017065514 0.026339764 0.81118912
0.019428363 0.026335742 0.81106406
0.019763125 0.026331531 0.81093419
0.020099867 0.026330056 0.81088859
0.020446677 0.026341598 0.81124383
0.020787427 0.026345087 0.81135106
0.021461796 0.026342981 0.81128567
0.021788087 0.026328813 0.81084913
0.022449821 0.026312482 0.81034571
0.024845298 0.026346525 0.81139207
0.025178095 0.026341015 0.81122208
0.025858531 0.026345553 0.81136113
0.027882241 0.026341215 0.81122541
0.028228305 0.026348747 0.81145704
0.028560122 0.02634296 0.8112784
0.036005218 0.026349306 0.81146342
0.036336105 0.026344076 0.81130183
-0.089268528 0.026635991 0.80960727
-0.083854616 0.026525127 0.80626619
-0.074618518 0.02646827 0.80458677
-0.072206952 0.026444938 0.80388957
-0.070031002 0.026636982 0.80974102
-0.066499777 0.026440803 0.803792
-0.066201635 0.02645555 0.8042419
-0.065900929 0.026469415 0.80466503
-0.049410623 0.026439428 0.80382448
-0.012594478 0.026505528 0.80593503
-0.00084586284 0.026638802 0.81000102
0.00016672608 0.026661891 0.81070381
0.0021930928 0.026658552 0.8106035
0.0038800468 0.026646873 0.81024927
0.0042193523 0.02665776 0.81058043
0.0059090853 0.026662862 0.81073618
0.006244448 0.026652522 0.81042188
0.0065776748 0.026634596 0.80987692
0.0079333382 0.02665461 0.81048578
0.0082666259 0.026640456 0.81005543
0.0086095864 0.026657362 0.81056952
0.009949659 0.026628491 0.80969179
0.010296214 0.026652323 0.8104164
0.010632432 0.02664873 0.8103072
0.011311443 0.026657684 0.81057942
0.012660251 0.026653333 0.81044698
0.014694679 0.026668658 0.81091261
0.017723039 0.026650069 0.81034625
0.018060928 0.026650464 0.81035805
0.018406855 0.026662484 0.81072336
0.018747263 0.026666222 0.81083685
0.019084318 0.026665142 0.81080377
0.022126935 0.026667902 0.81088573
-0.083856456 0.026861804 0.8062833
-0.083294883 0.026789306 0.80410904
-0.080320157 0.026803484 0.80455136
-0.079843864 0.026756277 0.80313617
-0.074199907 0.026773609 0.80368668
-0.073818602 0.026756838 0.80318499
-0.073489234 0.026758824 0.80324632
-0.072235003 0.026790405 0.80420119
-0.071940832 0.026805706 0.80466223
-0.071599066 0.026803335 0.80459273
-0.071281455 0.026810026 0.80479532
-0.071011826 0.026834911 0.80554402
-0.070217185 0.026916459 0.80799705
-0.066785678 0.026756119 0.80319864
-0.049064472 0.026768329 0.80364245
-0.048736632 0.026772218 0.80376053
-0.048391685 0.026766699 0.80359614
-0.048040241 0.026757486 0.80332083
-0.042406995 0.02679416 0.80444252
-0.037733246 0.026808031 0.8048746
-0.011306853 0.026973886 0.8099162
-0.010965848 0.026965158 0.80965465
-0.010626396 0.026959818 0.80949473
-0.0089432998 0.026969768 0.8097958
-0.0086093545 0.026980603 0.8101216
-0.0045566768 0.02696743 0.80973071
-0.004222116 0.026985398 0.81027055
-0.0038821364 0.026968842 0.80977374
-0.0028714554 0.026982814 0.81019419
-0.0011838588 0.026987847 0.81034672
0.00084157952 0.026977688 0.8100431
0.0011792644 0.026981954 0.81017143
0.0015171146 0.026987262 0.81033105
0.0018545901 0.026985189 0.810269
0.0025296893 0.026984284 0.81024218
0.0028670439 0.026982158 0.81017858
0.0032035368 0.026973225 0.80991048
0.0035416293 0.02697818 0.81005943
0.004892461 0.026982682 0.81019515
0.0052268752 0.026966451 0.80970794
0.0055639329 0.026965002 0.80966449
0.006915953 0.026975397 0.80997705
0.0072548701 0.026980784 0.81013888
0.0089442814 0.026986009 0.810296
0.011983435 0.026987683 0.81034631
0.017386843 0.026989941 0.81041265
-0.084112972 0.027172171 0.80551809
-0.083392888 0.027156407 0.80505455
-0.080553837 0.027104614 0.80353403
-0.080215521 0.027103495 0.80350268
-0.079589829 0.02711858 0.80395353
-0.078929529 0.027122024 0.80405933
-0.078635596 0.02713627 0.80448341
-0.078208528 0.027104495 0.80354327
-0.07685867 0.027219627 0.80696541
-0.07313171 0.027085222 0.80299836
-0.072800875 0.027086679 0.80304325
-0.070757449 0.02720196 0.80647302
-0.011971611 0.027288193 0.80922765
-0.011639371 0.027299754 0.80957103
-0.010282997 0.027280858 0.80901253
-0.0092720846 0.027281804 0.80904198
-0.0082687857 0.027308125 0.80982387
-0.0062393933 0.02728666 0.80918968
-0.0059024533 0.027287621 0.80921859
-0.0055671497 0.027296724 0.80948889
-0.0052308505 0.027301801 0.80963981
-0.0035416123 0.027282042 0.80905551
-0.0032060484 0.027295036 0.80944121
-0.0021950947 0.027304955 0.80973625
-0.0018563889 0.02728536 0.8091554
-0.001519778 0.027294694 0.80943245
-0.0011831466 0.027308872 0.80985326
0.0092755128 0.027304906 0.80974007
0.0096106697 0.02729862 0.80955368
-0.089526296 0.027623856 0.80888253
-0.083783031 0.027509883 0.80557603
-0.083070926 0.027496519 0.80518848
-0.082719602 0.027491326 0.80503827
-0.082238354 0.027442733 0.80361718
-0.081453666 0.027404172 0.80249172
-0.081106484 0.027399912 0.80236882
-0.080862962 0.027430778 0.80327457
-0.080444939 0.027402461 0.80244714
-0.08008568 0.027394004 0.80220139
-0.07855425 0.027443182 0.80365062
-0.078024447 0.027492607 0.80510163
-0.077638991 0.027474979 0.80458719
-0.042145975 0.027513059 0.80586129
-0.041808337 0.027511865 0.8058275
-0.025768463 0.027596116 0.8083427
-0.025457328 0.027623992 0.80916005
-0.025098437 0.027600098 0.80846095
-0.024096446 0.027609976 0.80875266
-0.021737417 0.027609847 0.80875421
-0.021399593 0.027608769 0.80872327
-0.014661649 0.027611561 0.80881798
-0.014328572 0.027619129 0.80904019
-0.01398988 0.027615976 0.8089484
-0.013645162 0.027600478 0.80849499
-0.012303435 0.027613362 0.80887455
-0.0095992004 0.027590221 0.80820048
-0.0075872494 0.027621109 0.8091079
-0.0072482429 0.027613904 0.80889726
-0.0069094896 0.027607011 0.80869573
-0.0048914989 0.027627721 0.80930459
-0.090106867 0.027931925 0.80803537
-0.089468889 0.027943123 0.80836326
-0.084397748 0.027716663 0.80183721
-0.083846204 0.027755415 0.80296206
-0.082199782 0.027764684 0.80323964
-0.081872761 0.027767351 0.80331868
-0.079159752 0.027755523 0.80299127
-0.077215731 0.027778747 0.8036741
-0.076216623 0.027780937 0.80374283
-0.070500396 0.027772969 0.8035419
-0.070192248 0.027783582 0.80385059
-0.042189855 0.027877869 0.80669957
-0.041855603 0.027879151 0.80673778
-0.0304942 0.027942272 0.80859977
-0.030145887 0.027931735 0.80829579
-0.029784033 0.027908271 0.80761766
-0.029453991 0.027914418 0.80779642
-0.02609181 0.027918519 0.80792373
-0.024770312 0.027946835 0.8087464
-0.024428641 0.02794148 0.8085922
-0.023755996 0.027942896 0.80863476
-0.023408789 0.027930647 0.80828106
-0.022070024 0.02794129 0.80859208
-0.020726377 0.027946729 0.8087523
-0.020386528 0.027942803 0.80863941
-0.019028941 0.027928362 0.8082242
-0.017685473 0.027934015 0.80839044
-0.016344197 0.027944339 0.80869174
-0.016005123 0.027940638 0.80858523
-0.015327396 0.02793351 0.80838013
-0.014994992 0.027941743 0.80861896
-0.013306518 0.027933614 0.8083865
-0.009943042 0.027946915 0.80877644
-0.0065739057 0.027949715 0.80886167
-0.089751303 0.028262896 0.80786884
-0.089305297 0.028228389 0.80688453
-0.084349759 0.028034959 0.80138063
-0.077149108 0.028089479 0.80297995
-0.051633034 0.028230472 0.80713338
-0.041915316 0.028255586 0.80788797
-0.04153575 0.028226433 0.80705565
-0.0358507 0.028251959 0.80780411
-0.035500403 0.028241079 0.80749404
-0.0344745 0.028227622 0.80711234
-0.031820655 0.028260287 0.80805415
-0.031488013 0.028263941 0.80815965
-0.031140525 0.028254207 0.80788219
-0.030813687 0.0282632 0.80814028
-0.029108441 0.028242335 0.80754822
-0.028777584 0.028247874 0.80770749
-0.028424842 0.028231807 0.80724895
-0.026769152 0.028259436 0.80804324
-0.026441131 0.028268715 0.80830938
-0.023073457 0.028269229 0.80833209
-0.022731302 0.028262591 0.80814302
-0.022389172 0.028255779 0.80794895
-0.020034615 0.028258614 0.80803508
-0.019704944 0.028268676 0.8083235
-0.019363724 0.028262231 0.80813986
-0.018692635 0.028265812 0.80824357
-0.018356552 0.028266869 0.80827451
-0.018020006 0.02826724 0.80828571
-0.017339898 0.028256591 0.8079825
-0.016997823 0.028247593 0.80772585
-0.016671525 0.028264975 0.80822349
-0.015663156 0.028268415 0.80832368
-0.089295194 0.028561521 0.80679262
-0.050963636 0.028568726 0.80718869
-0.044885464 0.028554134 0.80679959
-0.044589676 0.028580051 0.80753314
-0.044244479 0.028574457 0.80737627
-0.043252099 0.028585698 0.80769747
-0.041192293 0.028557802 0.8069163
-0.040842291 0.0285482 0.80664611
-0.040209848 0.028576525 0.80744874
-0.03952086 0.028564945 0.80712378
-0.038854998 0.028569967 0.8072679
-0.038183101 0.02857065 0.80728942
-0.037865989 0.02858522 0.80770218
-0.037189521 0.028582681 0.80763263
-0.035173502 0.028585356 0.8077144
-0.03483247 0.028581703 0.80761224
-0.033808399 0.028569486 0.80727005
-0.033152219 0.028583802 0.80767661
-0.032795265 0.028566042 0.8071757
-0.032455485 0.028563024 0.80709141
-0.032112539 0.028557129 0.80692577
-0.028105574 0.028585574 0.80774057
-0.02776725 0.028583776 0.80769056
-0.027423341 0.028576113 0.80747497
-0.02709352 0.028583124 0.80767387
-0.089224428 0.028874945 0.80615264
-0.050604235 0.028891984 0.80682266
-0.049883571 0.028864115 0.80604708
-0.049574506 0.028879767 0.80648547
-0.049270045 0.028898329 0.80700517
-0.048911721 0.028885337 0.80664366
-0.048584729 0.028890796 0.80679739
-0.047242556 0.028892487 0.80684984
-0.04656028 0.028886426 0.80668312
-0.045220628 0.028889667 0.80677861
-0.043550741 0.028897099 0.80699223
-0.040525213 0.028897937 0.80702621
-0.039866075 0.028907711 0.8073014
-0.039190922 0.028906008 0.8072561
-0.038510505 0.028900292 0.80709869
-0.03648521 0.02889451 0.80694366
-0.089201562 0.029203517 0.8059454
-0.061956011 0.029190011 0.80571771
-0.061666112 0.029211769 0.80631983
-0.061307322 0.029200953 0.80602282
-0.059624508 0.029199462 0.80598938
-0.059287921 0.02919914 0.80598199
-0.056243043 0.029187972 0.80568707
-0.055971283 0.029221406 0.80661142
-0.055629276 0.029218344 0.80652839
-0.054945242 0.029212102 0.80635893
-0.054275353 0.029213317 0.80639529
-0.053932469 0.029209634 0.8062951
-0.053599812 0.02921148 0.80634743
-0.053276349 0.029218389 0.8065396
-0.047905918 0.029223146 0.80669248
-0.047568172 0.02922219 0.80666733
-0.046899904 0.029224737 0.80674022
-0.046222568 0.029221626 0.8066569
-0.045880582 0.029217923 0.80655587
-0.036815777 0.029226245 0.80681694
-0.089126915 0.029514767 0.80527025
-0.062997535 0.029541768 0.80614769
-0.062640265 0.029531749 0.80587584
-0.06232129 0.02953977 0.80609632
-0.060919978 0.029511983 0.80534428
-0.058612995 0.0295335 0.80594212
-0.058254935 0.029522274 0.8056373
-0.057919309 0.029522354 0.805641
-0.057558268 0.029509405 0.80528909
-0.05655022 0.02950881 0.80527729
-0.056220327 0.029511819 0.80536085
-0.055243641 0.029528014 0.80580717
-0.054907795 0.029528012 0.8058086
-0.054230623 0.029525029 0.80572999
-0.089085966 0.029836742 0.80489963
-0.085710421 0.029829934 0.80473578
-0.085415393 0.029844083 0.8051194
-0.077707514 0.029848883 0.80529255
-0.077353291 0.029841743 0.80510175
-0.077007681 0.029837878 0.80499929
-0.073968016 0.029830061 0.80480462
-0.073647715 0.029836219 0.80497247
-0.073315792 0.0298377 0.80501425
-0.073003538 0.029847236 0.80527329
-0.072670266 0.029848227 0.80530179
-0.072337009 0.029849237 0.80533075
-0.071991757 0.029845279 0.80522573
-0.069651976 0.029849499 0.80535173
-0.069332741 0.029856592 0.80554479
-0.068998262 0.029857157 0.80556172
-0.068632267 0.029844023 0.80520904
-0.067314379 0.029854968 0.80551112
-0.066979848 0.029855518 0.80552757
-0.066647246 0.029856937 0.80556756
-0.066298068 0.029850908 0.80540651
-0.065961562 0.029850548 0.80539846
-0.065641932 0.029857865 0.80559748
-0.063620076 0.02985453 0.80551726
-0.057221413 0.029844379 0.8052727
-0.056891594 0.029847428 0.80535638
-0.089057744 0.03016272 0.80464399
-0.085993782 0.030147105 0.80424529
-0.085034057 0.030163502 0.80468857
-0.084664129 0.030151239 0.80436337
-0.083682217 0.030159947 0.80460149
-0.083356917 0.03016362 0.80470139
-0.083005548 0.030157851 0.80454946
-0.082673341 0.030159028 0.80458277
-0.082340151 0.03015985 0.80460662
-0.082026929 0.030168027 0.80482662
-0.080300756 0.030149821 0.80435044
-0.079954408 0.030145669 0.80424154
-0.079638563 0.030153029 0.80443978
-0.079312369 0.030156517 0.80453473
-0.078321658 0.030162487 0.80469954
-0.078020222 0.03017565 0.80505258
-0.076654896 0.03016665 0.80481982
-0.075310655 0.030165775 0.80480367
-0.074988551 0.030171165 0.80494928
-0.074666724 0.030176712 0.80509913
-0.074318394 0.030171555 0.80496329
-0.071644336 0.030175949 0.80509466
-0.071285501 0.030166117 0.80483413
-0.070937268 0.030160701 0.80469137
-0.070635647 0.030175148 0.80507851
-0.070299789 0.030175034 0.8050772
-0.069970772 0.030177873 0.80515462
-0.068281166 0.030172797 0.80502778
-0.067605734 0.030170878 0.80497992
-0.065268025 0.030176003 0.80512822
-0.064892106 0.030157261 0.8046298
-0.06457369 0.03016519 0.80484301
-0.064239644 0.030165862 0.80486256
-0.063919134 0.030172929 0.8050527
-0.060559474 0.030170893 0.80501419
-0.060234409 0.030176137 0.80515563
-0.089045078 0.030493811 0.80452883
-0.086299136 0.030471781 0.80396354
-0.084358945 0.030497447 0.80465245
-0.084020816 0.030496482 0.80462897
-0.081661113 0.030492203 0.80452949
-0.081329532 0.030493639 0.8045693
-0.081006177 0.030498186 0.8046912
-0.080673039 0.030499069 0.80471641
