# .PCD v0.7 - Point Cloud Data file format
VERSION 0.7
FIELDS x y z
SIZE 4 4 4
TYPE F F F
COUNT 1 1 1
WIDTH 857
HEIGHT 1
VIEWPOINT 0 0 0 1 0 0 0
POINTS 857
DATA ascii
1.287943 -0.661991 0.285422
1.287912 -0.66156799 0.285871
1.287999 -0.660061 0.28527799
1.288008 -0.65967298 0.28527901
1.288011 -0.65927899 0.28534499
1.2880239 -0.658894 0.28530201
1.288053 -0.65852302 0.285074
1.288028 -0.65810502 0.28545299
1.2883199 -0.66317499 0.28531399
1.28834 -0.66279697 0.28518799
1.288307 -0.66237098 0.285662
1.288271 -0.66194302 0.286165
1.288323 -0.66119701 0.285777
1.2883511 -0.66082698 0.28555301
1.288378 -0.66045499 0.28534701
1.288403 -0.657704 0.285759
1.2883821 -0.65728998 0.28610301
1.2884099 -0.65612602 0.28608301
1.28847 -0.65578002 0.28550199
1.288494 -0.65540397 0.28533301
1.288486 -0.655002 0.285514
1.288504 -0.65461999 0.28541601
1.288492 -0.65421402 0.28564799
1.288514 -0.65383601 0.285503
1.2885441 -0.65346402 0.285256
1.2886699 -0.66354197 0.285705
1.288787 -0.656914 0.28606799
1.288805 -0.65653402 0.28596401
1.288914 -0.65345502 0.285537
1.288901 -0.65304899 0.28577
1.288895 -0.65264899 0.28593999
1.2889349 -0.65228403 0.285595
1.288988 -0.65192902 0.28510299
1.288982 -0.65152901 0.28525901
1.288988 -0.65113699 0.285292
1.288998 -0.65074903 0.28528401
1.288999 -0.65035301 0.28537399
1.2890249 -0.64918602 0.28536901
1.289053 -0.64841402 0.28526399
1.289046 -0.647618 0.28553
1.289076 -0.66395998 0.285467
1.289443 -0.65000498 0.28491399
1.289446 -0.64961201 0.28497499
1.2894191 -0.64721602 0.28587401
1.289452 -0.64684403 0.285602
1.289508 -0.64648801 0.28507501
1.289531 -0.64610898 0.284915
1.289513 -0.64569998 0.28521699
1.289487 -0.64528602 0.28560299
1.289474 -0.64488202 0.28584599
1.289502 -0.64450502 0.28563201
1.289537 -0.64413297 0.28534001
1.2895401 -0.64373899 0.28540701
1.289512 -0.64332497 0.28582099
1.289515 -0.64293098 0.285889
1.289541 -0.64255297 0.28569499
1.289583 -0.64218497 0.285326
1.2895941 -0.64179701 0.28529599
1.289559 -0.64137799 0.28578901
1.289585 -0.64060402 0.285694
1.289615 -0.64022702 0.285458
1.2894371 -0.66433698 0.28572601
1.289941 -0.640984 0.286026
1.289947 -0.64019799 0.28615001
1.289961 -0.63981098 0.28610101
1.289982 -0.63942802 0.28596401
1.2899621 -0.63902003 0.286286
1.290063 -0.63749999 0.28555599
1.290071 -0.63710999 0.28556201
1.29005 -0.63670099 0.2859
1.289848 -0.66475999 0.285438
1.290375 -0.63864601 0.28617701
1.29037 -0.63824898 0.28632301
1.290392 -0.63786602 0.28618699
1.29047 -0.63633102 0.285716
1.290464 -0.63593203 0.28588101
1.290457 -0.63553298 0.28604999
1.290225 -0.66475499 0.28562501
1.290834 -0.63553202 0.28625301
1.290823 -0.635131 0.286468
1.2908649 -0.63475901 0.28610301
1.290828 -0.63434303 0.286607
1.29059 -0.66474003 0.28593501
1.29124 -0.634363 0.286412
1.291286 -0.63399303 0.28601301
1.290998 -0.66516 0.28567699
1.291623 -0.63357598 0.286733
1.291378 -0.66515797 0.285824
1.2919919 -0.63317698 0.287108
1.29177 -0.66516697 0.28584599
1.292425 -0.63320702 0.28668699
1.292169 -0.66518199 0.28578699
1.2927819 -0.63280201 0.28719401
1.292576 -0.665205 0.28563899
1.2932 -0.632429 0.28703001
1.292955 -0.66520202 0.28579801
1.293602 -0.63244301 0.286953
1.293332 -0.66519898 0.28597
1.294017 -0.63246298 0.28673601
1.293704 -0.66518998 0.28619999
1.2944469 -0.63288599 0.286266
1.294386 -0.63245898 0.28700501
1.2940871 -0.66519099 0.286318
1.2948329 -0.632891 0.28636101
1.294533 -0.66564298 0.28567201
1.295224 -0.63329399 0.28630799
1.295174 -0.632873 0.286926
1.294912 -0.66564101 0.285822
1.295609 -0.63329798 0.28641501
1.2952909 -0.66563898 0.28597599
1.295997 -0.633304 0.286486
1.295687 -0.66565198 0.28594899
1.296385 -0.63331002 0.286558
1.296057 -0.66564202 0.286194
1.2967891 -0.63332498 0.28645501
1.296471 -0.66566998 0.28598499
1.297195 -0.63334 0.286349
1.296874 -0.66568798 0.285896
1.2975971 -0.63335299 0.28627101
1.297286 -0.66571403 0.28570899
1.297965 -0.633349 0.28655401
1.297673 -0.66611499 0.28568199
1.2976561 -0.66570503 0.28595099
1.298344 -0.63335103 0.28670901
1.298034 -0.66609699 0.28602299
1.298736 -0.63335901 0.286742
1.298408 -0.66609102 0.28622201
1.299103 -0.63335502 0.287016
1.298798 -0.66609901 0.286259
1.2994879 -0.63336003 0.28711101
1.299188 -0.66610599 0.28629199
1.299889 -0.63337201 0.28705701
1.299584 -0.66611898 0.286273
1.300313 -0.63339603 0.28676999
1.299974 -0.66612601 0.286313
1.300747 -0.633425 0.28638801
1.30037 -0.66613799 0.28629199
1.301103 -0.633021 0.28685701
1.300754 -0.66614097 0.286383
1.301509 -0.63303602 0.28675601
1.3012021 -0.666592 0.28576201
1.301144 -0.66614902 0.28641999
1.30196 -0.63346702 0.286118
1.301549 -0.66656399 0.28622401
1.302321 -0.633461 0.286448
1.301949 -0.66657901 0.28616899
1.302669 -0.633448 0.286908
1.302351 -0.66699201 0.286001
1.303058 -0.63384902 0.286879
1.30273 -0.66698998 0.28614801
1.303476 -0.63387001 0.286661
1.303111 -0.666991 0.286268
1.303861 -0.63387501 0.28675401
1.303551 -0.66743499 0.28573701
1.303492 -0.66698998 0.286396
1.3042459 -0.63388002 0.28685001
1.30397 -0.66786098 0.28541899
1.304625 -0.63388097 0.28700501
1.304383 -0.66828299 0.285146
1.3043571 -0.66786599 0.28548801
1.304996 -0.63388002 0.28723499
1.304746 -0.66905999 0.28526899
1.3047529 -0.66867 0.28528801
1.30538 -0.63388401 0.28733599
1.305063 -0.66940302 0.285905
1.305757 -0.63388503 0.28750801
1.305517 -0.66985899 0.285254
1.305476 -0.669429 0.285732
1.306193 -0.63430899 0.28703201
1.305895 -0.67104298 0.28514999
1.305902 -0.670654 0.28516999
1.30588 -0.67023897 0.285465
1.3066 -0.63432401 0.28692999
1.30621 -0.67177999 0.285714
1.3062609 -0.67142701 0.28532001
1.306985 -0.63432902 0.28702
1.3065929 -0.67217797 0.28571999
1.3074 -0.63434798 0.28683901
1.3069611 -0.67216599 0.28596601
1.307811 -0.63436502 0.28670099
1.307216 -0.70618999 0.27967
1.307214 -0.70578998 0.27977201
1.3073519 -0.672966 0.28581801
1.307285 -0.67251402 0.28652501
1.308136 -0.63394701 0.28742999
1.3068089 -0.71080899 0.28585401
1.307623 -0.70502001 0.27982801
1.307657 -0.70466101 0.27959499
1.30773 -0.67296302 0.28597301
1.308544 -0.63396299 0.28730801
1.307127 -0.71270901 0.28610301
1.307084 -0.71226102 0.28658101
1.307076 -0.71185499 0.28674501
1.3071049 -0.71149498 0.28656301
1.3071491 -0.71115297 0.28624901
1.307166 -0.710778 0.286176
1.307175 -0.709997 0.286268
1.307164 -0.70958799 0.28646201
1.307152 -0.70917797 0.28665599
1.308175 -0.67341202 0.28541499
1.308936 -0.63397098 0.287341
1.307483 -0.71346802 0.28625801
1.307526 -0.71312499 0.28595501
1.307493 -0.71268898 0.28633901
1.307508 -0.70875102 0.28707999
1.307493 -0.70833802 0.287301
1.307531 -0.70798802 0.287038
1.307547 -0.70761102 0.28698
1.307552 -0.70722198 0.28702199
1.3085361 -0.67339498 0.285721
1.309337 -0.63398302 0.287294
1.3078589 -0.71504301 0.28605801
1.307822 -0.71460098 0.28648901
1.307849 -0.714239 0.28632301
1.307843 -0.71383601 0.286468
1.307986 -0.70649099 0.286814
1.308937 -0.67420298 0.28548601
1.308948 -0.67381603 0.28547499
1.309736 -0.633995 0.287256
1.308213 -0.716986 0.285974
1.308153 -0.71651399 0.28661299
1.308193 -0.716169 0.28633401
1.308233 -0.71582401 0.28604999
1.308233 -0.71542799 0.286136
1.308153 -0.71453702 0.28704399
1.308383 -0.70650798 0.28677699
1.308508 -0.70546502 0.28590101
1.308514 -0.70468003 0.28602299
1.30931 -0.67498797 0.28550801
1.309321 -0.67460102 0.28549799
1.3101521 -0.63401401 0.28707001
1.3085411 -0.71889597 0.28612199
1.308543 -0.71850199 0.28619599
1.308558 -0.71812499 0.28614801
1.308621 -0.71741402 0.28574401
1.308745 -0.70648497 0.28705299
1.308865 -0.70385301 0.28657499
1.308934 -0.70353502 0.28603101
1.308926 -0.70313001 0.286194
1.309659 -0.67535597 0.28582901
1.310569 -0.63403302 0.286879
1.3089221 -0.72008097 0.28596601
1.308903 -0.719661 0.28622401
1.3089221 -0.71929002 0.28613701
1.3090349 -0.71151698 0.286852
1.309305 -0.70273101 0.28640801
1.309343 -0.70237702 0.28615099
1.309379 -0.702021 0.28591099
1.310037 -0.67614502 0.285797
1.310028 -0.67574102 0.285972
1.310985 -0.63405198 0.286697
1.309306 -0.720478 0.28595799
1.3097529 -0.70161599 0.28617001
1.3098119 -0.701285 0.28572199
1.310407 -0.67653 0.28593501
1.31142 -0.63407898 0.28635299
1.3096499 -0.720824 0.28630501
1.310164 -0.70125198 0.28609601
1.310148 -0.70083803 0.28632599
1.3101439 -0.70043802 0.28644899
1.310131 -0.70002902 0.28664801
1.310169 -0.69967502 0.286394
1.310836 -0.67696702 0.285539
1.31183 -0.63409501 0.28622699
1.310029 -0.72121501 0.28633699
1.310526 -0.69964802 0.286715
1.310544 -0.69927198 0.286639
1.31058 -0.69891298 0.286412
1.311221 -0.67736602 0.285537
1.312236 -0.63410997 0.28613999
1.310429 -0.721237 0.286268
1.310927 -0.69887698 0.286818
1.310963 -0.69852 0.28658101
1.310993 -0.69815499 0.28640699
1.310976 -0.69774199 0.28663999
1.311515 -0.678478 0.28616399
1.311469 -0.67804301 0.286654
1.311528 -0.67769903 0.28621599
1.31264 -0.63412303 0.286071
1.310762 -0.72117501 0.286789
1.311344 -0.69772702 0.28686401
1.311318 -0.69730502 0.28718099
1.311951 -0.67892098 0.285705
1.311913 -0.67849201 0.28613201
1.313012 -0.63412201 0.286284
1.311204 -0.72164601 0.286259
1.31169 -0.69690001 0.28744701
1.311707 -0.696522 0.28738299
1.311712 -0.69613099 0.287429
1.311735 -0.69576001 0.28730801
1.3117729 -0.69540399 0.28705901
1.311823 -0.695059 0.28670499
1.312351 -0.67933297 0.28557199
1.31235 -0.678936 0.28566599
1.313357 -0.63450402 0.28663701
1.311558 -0.72161001 0.28660101
1.312144 -0.69499803 0.28733701
1.3127151 -0.67971301 0.285754
1.3137029 -0.63449198 0.28707299
1.311942 -0.72161198 0.28667
1.312541 -0.69461799 0.287386
1.312577 -0.69425899 0.287159
1.312572 -0.69385898 0.287287
1.312637 -0.693528 0.28680301
1.313098 -0.68050599 0.28568399
1.313079 -0.680094 0.28593001
1.314036 -0.63447398 0.28760999
1.31231 -0.72159398 0.286879
1.312996 -0.69350499 0.28710499
1.3130521 -0.69316602 0.286697
1.313113 -0.69283003 0.28625199
1.313108 -0.69242901 0.286385
1.313085 -0.692011 0.28667301
1.313432 -0.680861 0.28611901
1.3144259 -0.63448101 0.287662
1.312663 -0.72195202 0.28714201
1.3134561 -0.69200099 0.28686601
1.313444 -0.691594 0.28705099
1.313478 -0.69123101 0.286845
1.313816 -0.68125898 0.28612101
1.31303 -0.72193301 0.28735399
1.313856 -0.69083297 0.28705901
1.313835 -0.69041699 0.28733
1.3138959 -0.68968499 0.28696799
1.314218 -0.68127602 0.286057
1.315253 -0.63451701 0.28735101
1.313434 -0.72196102 0.287249
1.314254 -0.68966299 0.28727099
1.314267 -0.68927997 0.28724599
1.314317 -0.688932 0.28689799
1.314319 -0.68853801 0.28696799
1.31454 -0.68241203 0.28641999
1.314598 -0.68206602 0.28601199
1.314659 -0.681723 0.28557101
1.314638 -0.68131 0.285831
1.315618 -0.63451302 0.28760999
1.3138601 -0.72201502 0.28695801
1.31468 -0.688124 0.287334
1.314707 -0.68775398 0.28718501
1.31487 -0.68592602 0.28620699
1.314918 -0.68438703 0.28613299
1.314854 -0.68393397 0.28676599
1.314817 -0.68271601 0.287339
1.315999 -0.634911 0.28765199
1.314255 -0.722031 0.28692901
1.31515 -0.68702 0.28693399
1.315208 -0.68667698 0.28652099
1.315213 -0.68628699 0.28655899
1.315237 -0.68551701 0.28652599
1.315255 -0.68513799 0.28645599
1.315267 -0.684753 0.28643599
1.315209 -0.68351501 0.28718901
1.315223 -0.68313301 0.28715
1.314644 -0.72164297 0.287045
1.315486 -0.686979 0.28741899
1.316771 -0.63492203 0.28781301
1.315053 -0.72167701 0.28689399
1.317194 -0.63454902 0.28766999
1.3154531 -0.72169799 0.286834
1.317593 -0.63495499 0.28755599
1.315868 -0.72173798 0.28663999
1.317969 -0.63495702 0.287718
1.316214 -0.72130001 0.28711101
1.3183759 -0.63497102 0.287626
1.316645 -0.721358 0.28678501
1.318758 -0.63497502 0.28773701
1.317037 -0.72097403 0.28687501
1.319172 -0.634992 0.28759301
1.317459 -0.72102201 0.28662601
1.319556 -0.63499701 0.28768501
1.317862 -0.72104698 0.28653601
1.319961 -0.63501102 0.287615
1.3182369 -0.72064197 0.286771
1.3204 -0.63543302 0.287182
1.318612 -0.72063398 0.286915
1.32076 -0.63542801 0.287471
1.3189991 -0.72063899 0.286962
1.321125 -0.63542497 0.287723
1.319393 -0.720653 0.28694901
1.321541 -0.63544297 0.287559
1.319778 -0.72065699 0.287011
1.321938 -0.63545299 0.287554
1.320184 -0.72068501 0.28689501
1.322376 -0.635481 0.287213
1.320613 -0.72073901 0.28659999
1.322758 -0.63548499 0.28732699
1.321041 -0.720792 0.28631899
1.323122 -0.635481 0.28758001
1.323495 -0.635481 0.28776401
1.323894 -0.63549203 0.287745
1.322152 -0.72075099 0.28685901
1.324291 -0.63550299 0.28773299
1.322557 -0.72077698 0.286762
1.324694 -0.63630497 0.28751901
1.324653 -0.63589299 0.28791901
1.322952 -0.720397 0.28682101
1.325076 -0.63630903 0.28762901
1.323385 -0.72045499 0.286502
1.325439 -0.63630497 0.287891
1.323851 -0.72015297 0.286008
1.325874 -0.63633102 0.28758699
1.3242511 -0.719778 0.286033
1.326306 -0.63635498 0.28731
1.324558 -0.71929902 0.28679299
1.3267291 -0.63637602 0.28710601
1.324971 -0.71893799 0.28672001
1.32716 -0.63639998 0.28683701
1.32535 -0.718539 0.286908
1.327544 -0.63640398 0.28693601
1.325743 -0.71855199 0.28690401
1.3279181 -0.63640499 0.28710601
1.326108 -0.71813899 0.287202
1.328292 -0.636801 0.28719801
1.326555 -0.71820903 0.286787
1.32871 -0.63721502 0.286955
1.328697 -0.636814 0.28713101
1.3269531 -0.71783203 0.28682601
1.329132 -0.63723499 0.28676301
1.3273439 -0.71744603 0.28692299
1.329464 -0.637613 0.28717601
1.329531 -0.63724601 0.286742
1.3277349 -0.71745598 0.286939
1.329881 -0.63763201 0.28701699
1.328113 -0.71745199 0.28705701
1.330267 -0.63763702 0.28709701
1.328534 -0.717493 0.28684899
1.330637 -0.63803101 0.287218
1.330629 -0.63763303 0.28735799
1.328939 -0.71712202 0.28683701
1.331053 -0.63804901 0.28707701
1.329332 -0.717134 0.286838
1.331439 -0.63805503 0.28715199
1.329721 -0.71714199 0.286872
1.3318191 -0.63805801 0.28727999
1.330099 -0.71674299 0.287065
1.332157 -0.638439 0.28763199
1.33049 -0.71675301 0.28707999
1.3325649 -0.63884801 0.287471
1.330892 -0.71677399 0.28701499
1.332931 -0.63884598 0.28769201
1.331296 -0.71679699 0.286935
1.333326 -0.63885498 0.28770199
1.3316751 -0.71639901 0.28712499
1.3336819 -0.63884902 0.288001
1.3320971 -0.71644002 0.28691199
1.3340909 -0.63925898 0.287828
1.332478 -0.71643901 0.28700799
1.334528 -0.63968003 0.28746101
1.332818 -0.71600199 0.28747901
1.334872 -0.63966799 0.28783801
1.3332061 -0.71600997 0.287514
1.335214 -0.63965601 0.28823501
1.3336411 -0.71606302 0.287213
1.3356 -0.63966101 0.28831401
1.334049 -0.71608901 0.287108
1.3359801 -0.63966501 0.28842601
1.334446 -0.71610498 0.28707901
1.336369 -0.64006698 0.28840101
1.334801 -0.716079 0.287357
1.336738 -0.64006501 0.2886
1.335169 -0.71606499 0.28754699
1.3371069 -0.640064 0.288793
1.335534 -0.71604902 0.28775099
1.335945 -0.716079 0.287622
1.337936 -0.64009899 0.288537
1.336352 -0.71570897 0.287606
1.3364511 -0.71541101 0.286975
1.338338 -0.64011103 0.28849399
1.336769 -0.71574402 0.28743899
1.338789 -0.64014298 0.28811401
1.33715 -0.71574497 0.28752401
1.337533 -0.71574599 0.28760001
1.339678 -0.64059597 0.28736699
1.3379329 -0.71576399 0.28755599
1.3400249 -0.64098102 0.28764099
1.339955 -0.640558 0.28820401
1.3383321 -0.71578199 0.28751701
1.340358 -0.64096498 0.288086
1.338703 -0.71577102 0.28768
1.340703 -0.64095402 0.28844699
1.339047 -0.71573597 0.28802401
1.339027 -0.71532202 0.28824499
1.341236 -0.64141399 0.28742501
1.339435 -0.71534801 0.288142
1.341645 -0.64142901 0.287343
1.339861 -0.71539098 0.28791401
1.3419451 -0.64100498 0.28808799
1.34027 -0.71541798 0.287808
1.340456 -0.70651603 0.288261
1.342366 -0.64102399 0.28792101
1.340677 -0.71544302 0.28771499
1.342723 -0.64101899 0.28819099
1.341076 -0.71546 0.28767699
1.343243 -0.64147198 0.28727999
1.343081 -0.64101303 0.28845701
1.341484 -0.71548498 0.287579
1.3414021 -0.71501303 0.288223
1.343593 -0.64146399 0.28760001
1.341874 -0.71549302 0.28760999
1.343935 -0.64145201 0.287974
1.342225 -0.71507102 0.287976
1.344305 -0.641451 0.28816
1.3426141 -0.715078 0.28801
1.344741 -0.64147598 0.28789699
1.3430049 -0.71508801 0.28802499
1.345113 -0.64108098 0.28814101
1.343421 -0.71512097 0.287875
1.34554 -0.64110303 0.28794
1.343812 -0.71512997 0.28789499
1.344242 -0.71477997 0.28773099
1.3463269 -0.64151597 0.28790799
1.344698 -0.714849 0.28730899
1.3466311 -0.64148903 0.28853199
1.3450789 -0.714454 0.287476
1.3469681 -0.64187098 0.28885299
1.345517 -0.71450698 0.28717899
1.347331 -0.64186698 0.28907701
1.345916 -0.71412802 0.28722599
1.347702 -0.641868 0.28924301
1.346215 -0.71365899 0.28793699
1.348116 -0.64188403 0.28913301
1.34663 -0.71368998 0.28779799
1.348534 -0.64190203 0.28899199
1.347052 -0.713727 0.28761399
1.348953 -0.64192098 0.288847
1.3474441 -0.71373701 0.28762701
1.349301 -0.64191198 0.289166
1.347826 -0.71373802 0.287705
1.349703 -0.64192402 0.28913501
1.348297 -0.71421301 0.287126
1.350103 -0.64193499 0.289116
1.348608 -0.71494001 0.28752401
1.348487 -0.71443802 0.28839299
1.35054 -0.64196098 0.288854
1.34899 -0.71494102 0.28760701
1.350975 -0.641985 0.28861299
1.34931 -0.71488702 0.28809401
1.35138 -0.64199799 0.288562
1.349705 -0.715294 0.28801599
1.351776 -0.64200699 0.28856999
1.3501149 -0.71531999 0.287909
1.35217 -0.64201599 0.28859201
1.3505369 -0.71535701 0.28773099
1.3525881 -0.64203399 0.28845701
1.350938 -0.71537399 0.28769001
1.35313 -0.64249402 0.28746301
1.353062 -0.64207298 0.28797299
1.351283 -0.715343 0.28800899
1.353421 -0.64285803 0.28806999
1.351684 -0.715361 0.28796399
1.353835 -0.64287502 0.28796399
1.352071 -0.71536702 0.28800899
1.3542269 -0.642883 0.28800201
1.352407 -0.71532798 0.28838301
1.354462 -0.64322603 0.288946
1.35463 -0.64289498 0.28796801
1.352767 -0.71530998 0.28860101
1.355022 -0.64290297 0.288003
1.353227 -0.71498501 0.28825399
1.355431 -0.64291698 0.287929
1.353583 -0.71535802 0.28842601
1.353711 -0.71507502 0.28768599
1.355828 -0.64292699 0.28793699
1.35414 -0.71511602 0.287469
1.3561471 -0.64290798 0.28842399
1.356248 -0.64254999 0.287871
1.3544329 -0.714647 0.28818199
1.356481 -0.64249903 0.28889301
1.354908 -0.71472698 0.28767699
1.354925 -0.714347 0.28764501
1.356891 -0.64290899 0.28874001
1.355333 -0.71397501 0.28763601
1.35721 -0.64288998 0.289226
1.355767 -0.71362501 0.28746599
1.355837 -0.710527 0.287604
1.355967 -0.70550001 0.28774199
1.356017 -0.705145 0.28750199
1.357725 -0.64333802 0.28842601
1.356101 -0.71319199 0.28791499
1.356115 -0.71280998 0.287898
1.356038 -0.71235102 0.28845099
1.356066 -0.711191 0.28849599
1.356217 -0.71052599 0.28770301
1.3562371 -0.71014798 0.28764501
1.356221 -0.709741 0.28781801
1.3560981 -0.70845801 0.28880101
1.3562 -0.70617402 0.2886
1.356336 -0.70588702 0.287828
1.356423 -0.70477003 0.28750601
1.356395 -0.70435399 0.28775099
1.358148 -0.64335799 0.28827101
1.356396 -0.71193802 0.28875199
1.356419 -0.711169 0.28875101
1.356482 -0.71082699 0.288432
1.356529 -0.709288 0.28842899
1.3564349 -0.70881802 0.289085
1.356424 -0.70802099 0.28929901
1.356517 -0.70770001 0.28879899
1.3564841 -0.70728099 0.28907099
1.3565871 -0.70696801 0.28850701
1.356599 -0.70658302 0.28850099
1.356812 -0.70398802 0.28769299
1.358542 -0.64336598 0.28829399
1.35718 -0.70358402 0.28793299
1.358911 -0.64336598 0.28847399
1.357535 -0.70317101 0.28825
1.357487 -0.702739 0.28862199
1.359165 -0.642928 0.28942099
1.3578579 -0.70233798 0.28884101
1.35783 -0.70192301 0.28908199
1.359656 -0.64336699 0.28878
1.358281 -0.70158303 0.28881299
1.3584369 -0.70051599 0.28806999
1.360016 -0.64336401 0.28900501
1.358689 -0.70121002 0.28880399
1.358781 -0.70088398 0.28831199
1.3588181 -0.700122 0.28822899
1.3588099 -0.69972199 0.288351
1.358795 -0.69931698 0.28851199
1.36035 -0.64335001 0.28939399
1.3591959 -0.698937 0.28855401
1.3592319 -0.698569 0.28840601
1.3593349 -0.69824898 0.28784999
1.359345 -0.69786203 0.28785801
1.359323 -0.697451 0.28806701
1.359404 -0.69711399 0.28764501
1.359427 -0.69673598 0.28757501
1.360742 -0.64335901 0.28942099
1.359834 -0.69636101 0.28757599
1.359785 -0.69593102 0.287947
1.361128 -0.64336401 0.28949499
1.360207 -0.695566 0.287862
1.3602231 -0.69518298 0.28783199
1.360171 -0.69475198 0.288223
1.360208 -0.69438303 0.28807101
1.361547 -0.64338201 0.28936401
1.360612 -0.69400603 0.28808999
1.360655 -0.69363999 0.28790399
1.360644 -0.69323802 0.288041
1.36072 -0.692895 0.28765401
1.360705 -0.69248998 0.287815
1.3607171 -0.69210398 0.287815
1.360718 -0.69171 0.28787899
1.3618701 -0.64297098 0.28988299
1.361148 -0.69134903 0.28774899
1.361088 -0.69091398 0.28817999
1.362318 -0.64299899 0.289579
1.361531 -0.69056201 0.287967
1.361483 -0.690135 0.28832701
1.361495 -0.68974799 0.28832901
1.362743 -0.64341402 0.28933999
1.362685 -0.64299798 0.28976199
1.361944 -0.68940002 0.28807899
1.361953 -0.68901098 0.28809699
1.363145 -0.64342499 0.289318
1.362378 -0.68864602 0.28799501
1.3623509 -0.68823397 0.28822801
1.363562 -0.64344198 0.289204
1.3627 -0.68782097 0.288578
1.362743 -0.68745297 0.288396
1.363969 -0.64345598 0.28914499
1.363194 -0.6875 0.28806901
1.3631901 -0.68710202 0.288165
1.364378 -0.64346999 0.289083
1.363636 -0.68714499 0.28786901
1.363664 -0.686768 0.28777501
1.364786 -0.643484 0.28901801
1.364067 -0.68678302 0.28773499
1.364042 -0.686373 0.28795499
1.364046 -0.68598002 0.28799999
1.365171 -0.643489 0.289094
1.364458 -0.686001 0.28791001
1.3644069 -0.68557501 0.28828099
1.365605 -0.64351201 0.28888401
1.364922 -0.685265 0.287651
1.3649 -0.684856 0.287853
1.364967 -0.68450201 0.28752801
1.365937 -0.64310402 0.28933799
1.365325 -0.68409503 0.28782699
1.366361 -0.64312297 0.28918901
1.365788 -0.68375099 0.28751099
1.366708 -0.64311498 0.28948599
1.366178 -0.68336302 0.28762299
1.3661619 -0.68295801 0.28778499
1.3661571 -0.68256003 0.28788599
1.367125 -0.64352697 0.28929999
1.367491 -0.64352602 0.28948799
1.366979 -0.68220502 0.287788
1.367873 -0.64353001 0.28957599
1.367346 -0.68180299 0.28803399
1.368225 -0.64352399 0.289841
1.367811 -0.68145901 0.28771099
1.3686351 -0.643933 0.28970301
1.368108 -0.68101698 0.28835499
1.369038 -0.64394498 0.289671
1.368486 -0.68101799 0.288463
1.369452 -0.64396101 0.289579
1.373331 -0.64208299 0.267997
1.368932 -0.68105698 0.288178
1.36902 -0.680713 0.287743
1.369884 -0.64398301 0.289386
1.373736 -0.642093 0.26800501
1.369439 -0.68034101 0.287691
1.3694251 -0.67993802 0.28784099
1.3702641 -0.643987 0.28948599
1.374187 -0.64252102 0.26768601
1.374209 -0.642124 0.26763099
1.36982 -0.67955297 0.28792301
1.3706861 -0.644005 0.289352
1.374603 -0.64213002 0.267708
1.37029 -0.67960501 0.28750801
1.3711081 -0.644023 0.28921801
1.374998 -0.64253998 0.26770499
1.374931 -0.64211398 0.26815701
1.370712 -0.67923498 0.287435
1.371506 -0.64403403 0.289215
1.375293 -0.64251298 0.26834199
1.3710999 -0.67884499 0.287559
1.371057 -0.67842698 0.28786999
1.371942 -0.64405602 0.289004
1.3714449 -0.678038 0.287992
1.371433 -0.67763603 0.28812799
1.372277 -0.64365 0.28942999
1.371814 -0.67763799 0.28822199
1.372707 -0.64367098 0.289253
1.372171 -0.67723203 0.28851601
1.373125 -0.64368802 0.28914201
1.372559 -0.676844 0.288636
1.372514 -0.67642498 0.288959
1.37343 -0.64406103 0.289592
1.373515 -0.643695 0.28918999
1.372954 -0.67645901 0.28871799
1.3737251 -0.64443099 0.29009601
1.37339 -0.67649001 0.28850201
1.373381 -0.67609102 0.28862199
1.374122 -0.64444 0.290104
1.373781 -0.676103 0.28860599
1.374146 -0.67570198 0.28885499
1.374911 -0.644458 0.290142
1.374613 -0.67575002 0.28846899
1.375299 -0.64446503 0.29019701
1.37497 -0.675345 0.288757
1.3758219 -0.644517 0.28950599
1.3754179 -0.67538297 0.288477
1.376233 -0.64453202 0.28943601
1.3757401 -0.67496002 0.28896001
1.3766299 -0.64454103 0.289446
1.3761801 -0.67499298 0.288726
1.377035 -0.64494902 0.28933999
1.376953 -0.644526 0.28985801
1.376529 -0.67458397 0.28906399
1.377467 -0.64497 0.289157
1.376981 -0.67462301 0.288764
1.377823 -0.64496601 0.28939199
1.377341 -0.67422003 0.28903401
1.3782409 -0.64537698 0.289217
1.377813 -0.67387402 0.288697
1.377756 -0.67344999 0.289074
1.378635 -0.64578098 0.28917
1.378553 -0.64535803 0.28968301
1.378222 -0.67349601 0.28870201
1.378231 -0.673105 0.28872499
1.379011 -0.64578301 0.28929701
1.37871 -0.67276198 0.288349
1.3787 -0.67236203 0.28847301
1.378703 -0.67196798 0.288524
1.379398 -0.64618498 0.28928801
1.3791749 -0.67201501 0.28812701
1.379123 -0.67159498 0.28847301
1.379745 -0.64617801 0.28956401
1.379584 -0.67124099 0.288201
1.380174 -0.64698797 0.28926599
1.380109 -0.64657098 0.289684
1.379979 -0.67045999 0.28835201
1.380595 -0.64740098 0.289078
1.380559 -0.64699298 0.28933901
1.380337 -0.670057 0.288638
1.380949 -0.64739603 0.289314
1.3809429 -0.646999 0.28941599
1.380738 -0.67006898 0.28861901
1.381439 -0.64783299 0.288762
1.381353 -0.64740801 0.28928801
1.381109 -0.67006701 0.288762
1.381784 -0.648615 0.28891
1.381812 -0.648229 0.288829
1.381394 -0.66962999 0.289433
1.382123 -0.64860398 0.28922999
1.381821 -0.66965503 0.289276
1.382549 -0.649414 0.28894699
1.382442 -0.64898098 0.289581
1.382321 -0.66931897 0.28880101
1.382913 -0.64980698 0.28906101
1.382872 -0.64939803 0.28934601
1.382787 -0.669361 0.28844199
1.383346 -0.65022498 0.288818
1.3830841 -0.66892999 0.28904301
1.383701 -0.65021998 0.28904399
1.383495 -0.66894698 0.28897601
1.384059 -0.65061003 0.289195
1.384043 -0.65021002 0.28934699
1.383921 -0.66896999 0.288827
1.38449 -0.65063202 0.28902501
1.384323 -0.66858798 0.28887701
1.3848521 -0.65063 0.28921601
1.384653 -0.66817302 0.28929901
1.385305 -0.65105402 0.28886801
1.385097 -0.66820401 0.289056
1.38564 -0.65183198 0.289065
1.385625 -0.65143198 0.28920999
1.3855031 -0.66782397 0.28908199
1.3860379 -0.65263301 0.288932
1.3860331 -0.65223598 0.28902301
1.385856 -0.66742003 0.28938499
1.386387 -0.65223002 0.28925699
1.386326 -0.66746199 0.28901201
1.386718 -0.65261 0.289543
1.386783 -0.66710401 0.28877699
1.386802 -0.66671699 0.28874299
1.386991 -0.65297002 0.29012099
1.387201 -0.66672802 0.28874201
1.387454 -0.65379399 0.28965601
1.387381 -0.65337199 0.290097
1.387646 -0.66675901 0.28850299
1.387771 -0.65416902 0.29000801
1.3881069 -0.66640198 0.28824699
1.388072 -0.66599202 0.28849599
1.388164 -0.665636 0.28808901
1.388291 -0.65619999 0.28905201
1.388302 -0.65580899 0.28906199
1.388322 -0.65542102 0.289024
1.388266 -0.65500498 0.28938001
1.388139 -0.65456301 0.29009601
1.388626 -0.66527802 0.28783301
1.3885649 -0.66485697 0.28821501
1.3887219 -0.65622199 0.28888601
1.388945 -0.664464 0.28837401
1.388901 -0.66404998 0.28867
1.388983 -0.65657598 0.28952101
1.389354 -0.66408402 0.288389
1.389274 -0.66365498 0.28886801
1.389243 -0.66324699 0.289092
1.38929 -0.662081 0.28905201
1.3893549 -0.66171199 0.28878999
1.389258 -0.65772402 0.289949
1.389254 -0.657327 0.290039
1.389246 -0.65692902 0.29014799
1.38964 -0.662862 0.28916499
1.3896739 -0.66248101 0.289058
1.389738 -0.66132098 0.28893399
1.389686 -0.660905 0.289269
1.389658 -0.66049898 0.28947699
1.389652 -0.66010201 0.28957301
1.389665 -0.65971202 0.28957099
1.389696 -0.659329 0.28948399
1.389679 -0.65892702 0.28963801
1.389683 -0.65853399 0.289682
1.389655 -0.65812802 0.28989199
