# .PCD v0.7 - Point Cloud Data file format
VERSION 0.7
FIELDS x y z
SIZE 4 4 4
TYPE F F F
COUNT 1 1 1
WIDTH 807
HEIGHT 1
VIEWPOINT 0 0 0 1 0 0 0
POINTS 807
DATA ascii
1.197695 -0.42182201 0.25077799
1.197699 -0.42138401 0.25066999
1.197706 -0.42099801 0.25087601
1.197713 -0.42060399 0.251026
1.197716 -0.42014799 0.25081199
1.197723 -0.419752 0.250956
1.197745 -0.418089 0.25105399
1.19775 -0.417665 0.25103301
1.197757 -0.41728199 0.25124601
1.197762 -0.416843 0.25113899
1.197767 -0.416403 0.25102499
1.1977741 -0.41603801 0.25134301
1.197885 -0.439556 0.25163901
1.197892 -0.43917099 0.25185499
1.197896 -0.43872201 0.25165299
1.1979001 -0.43827799 0.251481
1.1979049 -0.43785 0.251412
1.19791 -0.43741801 0.25132301
1.197915 -0.43700001 0.25132799
1.197921 -0.43657801 0.251302
1.197925 -0.43614 0.25117299
1.19793 -0.43572 0.25116
1.197939 -0.43536901 0.251598
1.197948 -0.43450201 0.25140801
1.197951 -0.43402901 0.251057
1.197958 -0.43364099 0.25125399
1.197965 -0.43324599 0.251405
1.19797 -0.432825 0.251385
1.197976 -0.432432 0.25155401
1.197981 -0.431988 0.25138801
1.197987 -0.43159899 0.25157899
1.197993 -0.43117601 0.251553
1.197998 -0.43076599 0.251609
1.198005 -0.43038401 0.251838
1.198018 -0.42903501 0.251257
1.19802 -0.428545 0.25082001
1.198024 -0.428083 0.25055701
1.1980309 -0.42769301 0.250734
1.198037 -0.42728701 0.25082001
1.1980439 -0.426911 0.251082
1.198051 -0.426525 0.25129101
1.198055 -0.42609099 0.251196
1.198061 -0.42567101 0.25119501
1.198068 -0.425302 0.25150201
1.198084 -0.424034 0.251443
1.198088 -0.42357099 0.251176
1.198092 -0.42312399 0.25101599
1.1980979 -0.422721 0.25111201
1.198103 -0.42228401 0.251012
1.198108 -0.42185 0.250925
1.198145 -0.41944 0.25156799
1.19815 -0.41903001 0.25162399
1.198155 -0.418587 0.25148699
1.198184 -0.41596901 0.250929
1.198192 -0.41560599 0.25125599
1.198199 -0.41523901 0.25155801
1.198205 -0.414828 0.25161201
1.198208 -0.41433999 0.25122699
1.198212 -0.413901 0.25111699
1.19822 -0.413526 0.251378
1.1982239 -0.41307899 0.25122699
1.198285 -0.440377 0.25151399
1.19829 -0.43995899 0.25151399
1.198357 -0.43498901 0.25182199
1.198422 -0.42996001 0.25178301
1.198426 -0.42949799 0.25151101
1.198493 -0.42450801 0.25174901
1.198643 -0.41269299 0.251405
1.198647 -0.412231 0.251169
1.198691 -0.44080499 0.25155199
1.198696 -0.44038701 0.25154999
1.199065 -0.41182101 0.25121
1.199101 -0.440788 0.251407
1.199484 -0.411403 0.25120699
1.199506 -0.44119799 0.25132599
1.1998971 -0.41141301 0.251243
1.199914 -0.44167 0.25166601
1.199919 -0.441237 0.25156099
1.200309 -0.411396 0.25113001
1.200316 -0.41104999 0.251551
1.200326 -0.44169 0.251775
1.200729 -0.41108501 0.25172499
1.200738 -0.44172299 0.251973
1.201141 -0.41102299 0.25136501
1.201144 -0.44216001 0.25207099
1.2015539 -0.41106701 0.25159201
1.2015539 -0.44210899 0.251699
1.201967 -0.41108301 0.25166401
1.201964 -0.44207799 0.25145999
1.2023799 -0.41112801 0.251894
1.202376 -0.44211999 0.25171801
1.202793 -0.411138 0.25193399
1.202788 -0.44214401 0.25185099
1.2032059 -0.41115099 0.251986
1.203199 -0.44217101 0.25200701
1.203624 -0.410685 0.251717
1.203611 -0.44217101 0.25198099
1.204036 -0.41066101 0.251562
1.204022 -0.44218999 0.252078
1.2044491 -0.410642 0.251441
1.204433 -0.442184 0.252013
1.204862 -0.41064 0.25141001
1.204845 -0.44219199 0.25203899
1.205276 -0.41058299 0.251077
1.205256 -0.44219801 0.25205001
1.205689 -0.41057 0.25098699
1.205667 -0.44219801 0.25202101
1.206102 -0.41057801 0.25101399
1.206079 -0.44220501 0.25203699
1.206514 -0.410649 0.25138801
1.20649 -0.44220099 0.251986
1.2069269 -0.41068199 0.25155601
1.206902 -0.44221899 0.25208199
1.207339 -0.41073301 0.25182399
1.2073129 -0.442222 0.25207299
1.207752 -0.41073799 0.25183299
1.207724 -0.44224501 0.252202
1.208165 -0.41075701 0.251921
1.208136 -0.442242 0.25214899
1.208578 -0.41074401 0.251831
1.2085479 -0.44223601 0.252085
1.208992 -0.41073999 0.25178999
1.2089601 -0.44221601 0.25192001
1.2094049 -0.410739 0.25176501
1.209372 -0.442202 0.25179499
1.209818 -0.41073999 0.251755
1.209785 -0.442191 0.25169399
1.2102309 -0.410734 0.25170401
1.210196 -0.44221699 0.25184301
1.210644 -0.410741 0.251724
1.2106071 -0.44222501 0.251865
1.2110569 -0.41077599 0.25189799
1.211017 -0.44227099 0.25215301
1.21147 -0.41078001 0.25190401
1.211427 -0.44231099 0.25239399
1.211882 -0.410795 0.251968
1.2118371 -0.442352 0.25264299
1.212296 -0.41079 0.25192499
1.212244 -0.44273701 0.252395
1.212248 -0.442368 0.25272599
1.212708 -0.41081601 0.252051
1.212653 -0.44309899 0.251984
1.2131211 -0.410826 0.25208801
1.213058 -0.44353399 0.25207099
1.213064 -0.44312 0.25209901
1.213534 -0.410835 0.25212401
1.213465 -0.443932 0.251908
1.213469 -0.44355699 0.25220299
1.213948 -0.410817 0.252004
1.21387 -0.444368 0.25199899
1.213876 -0.44396201 0.252085
1.214362 -0.41080901 0.25194001
1.214278 -0.44475299 0.25174499
1.214281 -0.444381 0.25206199
1.214776 -0.41080499 0.251901
1.214682 -0.44520101 0.25192699
1.215189 -0.41081801 0.251955
1.215089 -0.44560999 0.25183499
1.215601 -0.41083801 0.252049
1.21549 -0.446098 0.252298
1.2154959 -0.44568199 0.25230899
1.216015 -0.41082999 0.25198799
1.215902 -0.446435 0.251701
1.216429 -0.410826 0.25194499
1.216305 -0.44689101 0.25193799
1.2163121 -0.44646099 0.251854
1.21684 -0.41086599 0.25215101
1.216715 -0.44691601 0.252083
1.217253 -0.41086999 0.25215501
1.217117 -0.44737899 0.25237599
1.217122 -0.44696999 0.252433
1.217666 -0.410887 0.25223401
1.217523 -0.44779101 0.25230601
1.218078 -0.41090801 0.25233001
1.217931 -0.447842 0.25263301
1.218484 -0.41134301 0.25239199
1.2183321 -0.44829899 0.25288701
1.218338 -0.44788599 0.25291401
1.218894 -0.41137901 0.25257701
1.2187361 -0.448733 0.25297001
1.218744 -0.44830099 0.252864
1.219306 -0.41139901 0.25267199
1.219139 -0.449532 0.25268701
1.219146 -0.44911399 0.252682
1.2197241 -0.41100901 0.25282201
1.219546 -0.44994399 0.252619
1.219551 -0.449541 0.25272
1.220137 -0.41101 0.25281101
1.219952 -0.450358 0.25256601
1.219956 -0.44995901 0.25269499
1.220551 -0.41101 0.25279301
1.220354 -0.45080799 0.25277001
1.220964 -0.41102001 0.25283
1.2207609 -0.451217 0.25267401
1.220763 -0.45083499 0.25292999
1.2213809 -0.41098201 0.252599
1.221163 -0.45166001 0.25283101
1.221171 -0.451233 0.25275999
1.221795 -0.41097501 0.252543
1.221036 -0.48619699 0.25321299
1.221565 -0.452106 0.25301301
1.221573 -0.45168301 0.252967
1.222211 -0.410956 0.25242001
1.221417 -0.48787299 0.25336099
1.221424 -0.48746201 0.25338101
1.221431 -0.48704401 0.25334501
1.2214381 -0.486624 0.25328201
1.2214431 -0.48622 0.25338301
1.221449 -0.48580801 0.25340399
1.221452 -0.48541099 0.25356799
1.221462 -0.484979 0.25339201
1.221471 -0.48455101 0.25325301
1.22197 -0.45253399 0.25305599
1.221975 -0.45212799 0.25313801
1.2226239 -0.410961 0.252433
1.2218159 -0.48907399 0.25289601
1.221814 -0.48870701 0.25337401
1.22182 -0.4883 0.25343701
1.221882 -0.48455101 0.25319901
1.2218879 -0.484135 0.25318301
1.221892 -0.48373801 0.25334999
1.22191 -0.48287699 0.25303799
1.222373 -0.452966 0.25313899
1.2223769 -0.45256701 0.253268
1.223038 -0.410965 0.252433
1.22221 -0.48992401 0.25307301
1.222219 -0.48949799 0.252951
1.222224 -0.48909 0.25300199
1.2223051 -0.48335001 0.25354901
1.22233 -0.48245099 0.25287601
1.2223409 -0.48200899 0.252617
1.222345 -0.48160899 0.25275901
1.2223459 -0.48122799 0.25306699
1.22235 -0.480829 0.25320899
1.22278 -0.45337299 0.25303301
1.223454 -0.410947 0.25231901
1.2225831 -0.49202299 0.25333199
1.2225879 -0.49162 0.25344399
1.222599 -0.49080199 0.25352901
1.22261 -0.49036601 0.25330299
1.222755 -0.48086199 0.253465
1.22276 -0.48045501 0.25353801
1.222765 -0.48004901 0.25361499
1.223187 -0.45415401 0.252606
1.223188 -0.453776 0.25289899
1.223864 -0.41098699 0.25252199
1.222976 -0.49325901 0.253227
1.222986 -0.492827 0.253032
1.222997 -0.492387 0.25276101
1.223177 -0.480048 0.253557
1.223182 -0.47964001 0.25361699
1.223187 -0.47923201 0.25367099
1.223202 -0.47877201 0.25325999
1.223206 -0.47837001 0.253373
1.223592 -0.45457399 0.25259501
1.2242759 -0.41099799 0.25256801
1.223382 -0.49404201 0.25270399
1.223377 -0.49368799 0.25333399
1.22338 -0.49328801 0.25347701
1.223618 -0.47799 0.25364399
1.223644 -0.47708601 0.252969
1.223655 -0.47664401 0.25272399
1.22366 -0.476237 0.25279701
1.223666 -0.47582501 0.25282899
1.2236691 -0.475429 0.252992
1.224005 -0.454945 0.25222099
1.224691 -0.41099599 0.25253901
1.223778 -0.49487901 0.25275701
1.2237819 -0.494477 0.252877
1.223787 -0.494073 0.252974
1.2240781 -0.475445 0.253088
1.2240829 -0.47504199 0.253198
1.224085 -0.474648 0.25338301
1.224406 -0.45539501 0.25243601
1.224411 -0.45498699 0.2525
1.225111 -0.410945 0.252231
1.224178 -0.49531499 0.25293699
1.224182 -0.49491501 0.25307801
1.224499 -0.47425601 0.253535
1.224508 -0.473827 0.253416
1.224524 -0.47336 0.252965
1.224811 -0.45581999 0.25245601
1.22553 -0.4109 0.251966
1.224579 -0.49536201 0.253382
1.224937 -0.47297701 0.25320199
1.2249449 -0.472552 0.253115
1.224954 -0.472121 0.252985
1.224961 -0.471706 0.25298601
1.224983 -0.47044301 0.25284699
1.2252131 -0.45626 0.252597
1.2259459 -0.41089299 0.25190699
1.22499 -0.495747 0.253012
1.224985 -0.49538401 0.253553
1.225373 -0.47132301 0.25321499
1.225387 -0.470871 0.252909
1.225401 -0.47041401 0.25255501
1.225405 -0.47001001 0.252655
1.225407 -0.46962401 0.25290099
1.225615 -0.45707801 0.252444
1.2256171 -0.45669001 0.252664
1.226357 -0.41091901 0.25203699
1.225392 -0.495785 0.25335801
1.225822 -0.46922699 0.253023
1.225824 -0.468833 0.25319901
1.225832 -0.468413 0.25316399
1.225841 -0.46798101 0.253032
1.225849 -0.46755999 0.252987
1.226 -0.45837 0.25272301
1.226014 -0.45791301 0.25241899
1.22602 -0.457499 0.252442
1.226018 -0.45713601 0.25284699
1.2267669 -0.410956 0.252222
1.225793 -0.49621701 0.25350001
1.2257971 -0.49581099 0.253582
1.226263 -0.46716699 0.253133
1.226403 -0.45880499 0.25282899
1.227173 -0.411017 0.25254399
1.2262 -0.49623099 0.25359499
1.226673 -0.46679899 0.25348601
1.226678 -0.46639201 0.253553
1.226691 -0.46594399 0.25329
1.226702 -0.46550599 0.25311199
1.226712 -0.46507201 0.252967
1.226721 -0.46463999 0.252837
1.226789 -0.46046999 0.252785
1.226792 -0.46007699 0.25296399
1.226794 -0.459683 0.25313899
1.226808 -0.459225 0.25281999
1.227584 -0.411046 0.252689
1.226607 -0.49624899 0.25371999
1.227142 -0.46421501 0.252731
1.2271399 -0.463844 0.253093
1.227154 -0.46301001 0.25307399
1.227181 -0.46171901 0.252747
1.2271841 -0.46132699 0.25293499
1.227193 -0.460897 0.25283101
1.227982 -0.41153201 0.253034
1.227012 -0.49627301 0.253923
1.227579 -0.46256 0.25277001
1.22759 -0.46212101 0.25259101
1.228394 -0.41192201 0.252846
1.227422 -0.496279 0.25392899
1.228803 -0.41195601 0.253016
1.227838 -0.49625799 0.25364101
1.229213 -0.411989 0.25318801
1.228248 -0.496263 0.253629
1.229647 -0.411107 0.25293899
1.228655 -0.49627799 0.25373101
1.230062 -0.4111 0.252884
1.229068 -0.49588501 0.25388601
1.230484 -0.41104901 0.25258401
1.229483 -0.495873 0.25369
1.230899 -0.411042 0.25252301
1.2298959 -0.49586701 0.253564
1.231307 -0.41108599 0.25275201
1.230311 -0.495855 0.25337201
1.230311 -0.49546599 0.25363901
1.231711 -0.41115499 0.253117
1.230724 -0.49546 0.25351501
1.232125 -0.41115499 0.25310099
1.231133 -0.495469 0.25354499
1.23113 -0.49508899 0.253903
1.232543 -0.41113701 0.252985
1.23155 -0.49506301 0.25356501
1.2329611 -0.41111401 0.252839
1.231967 -0.49504399 0.253297
1.233374 -0.411502 0.25263399
1.232386 -0.495022 0.25299999
1.233791 -0.41148999 0.25255001
1.232801 -0.49501199 0.25283301
1.234207 -0.41148299 0.252491
1.233217 -0.495002 0.252662
1.2345999 -0.41198599 0.25293401
1.2346129 -0.41153201 0.252747
1.2336299 -0.49499801 0.25256401
1.235009 -0.41202101 0.25311199
1.234043 -0.49499699 0.25249201
1.235418 -0.41205201 0.253268
1.234437 -0.49465999 0.25325099
1.234446 -0.49424201 0.25320101
1.235829 -0.41245499 0.25314999
1.234854 -0.49425599 0.25329
1.234876 -0.49379599 0.25279701
1.236243 -0.41245499 0.253133
1.235276 -0.49383301 0.25313401
1.235287 -0.49340701 0.25300199
1.236658 -0.41245499 0.25311401
1.23568 -0.49346599 0.25356501
1.237061 -0.41290399 0.253252
1.237077 -0.412431 0.252958
1.2374769 -0.41289401 0.253178
1.236498 -0.493485 0.25365001
1.2378891 -0.412907 0.25323299
1.2369111 -0.49348301 0.25356901
1.238302 -0.41291901 0.25328201
1.237339 -0.49344 0.25305
1.2387069 -0.41335201 0.25333199
1.237763 -0.49340701 0.25264701
1.237761 -0.49302101 0.25294
1.238167 -0.49303901 0.25307399
1.238165 -0.49265 0.253335
1.23953 -0.41338599 0.25348601
1.238575 -0.492659 0.25336799
1.2399549 -0.413335 0.25318301
1.238986 -0.492661 0.253333
1.238984 -0.49227399 0.253611
1.240382 -0.41327801 0.252837
1.239396 -0.492277 0.25358
1.2394 -0.491871 0.25365999
1.240786 -0.413717 0.25292501
1.239804 -0.49189401 0.25384599
1.239816 -0.491467 0.253708
1.2411979 -0.41372901 0.25297201
1.24022 -0.49149099 0.253894
1.241609 -0.413748 0.253061
1.2406321 -0.49149299 0.253856
1.242025 -0.41374701 0.25303599
1.241046 -0.49149001 0.25377399
1.242426 -0.41419601 0.253178
1.242439 -0.41374999 0.25303599
1.24147 -0.49146 0.25340599
1.2428451 -0.41418201 0.25308001
1.241889 -0.49144799 0.25321901
1.241879 -0.49107799 0.25367099
1.243266 -0.41415301 0.25289401
1.242291 -0.49107799 0.25362
1.243673 -0.41418999 0.25308901
1.242705 -0.49107599 0.25354201
1.2440799 -0.41422501 0.253268
1.2431099 -0.49070001 0.25387701
1.244487 -0.41426101 0.25345099
1.243526 -0.490695 0.25376001
1.2449059 -0.41424799 0.25336099
1.243956 -0.49025699 0.253463
1.24532 -0.414253 0.253373
1.244355 -0.49029201 0.25376499
1.245735 -0.41425201 0.25334901
1.244767 -0.49029601 0.25374401
1.246148 -0.41426301 0.25338799
1.245187 -0.49028 0.25353
1.24517 -0.48992401 0.25412101
1.246568 -0.414244 0.253261
1.245594 -0.48989901 0.253811
1.245585 -0.48952401 0.25420401
1.246984 -0.414242 0.25323299
1.246004 -0.48950899 0.25399801
1.2473969 -0.414251 0.25326499
1.246425 -0.48909599 0.25395
1.247799 -0.41469499 0.25338
1.246838 -0.489494 0.25372899
1.248217 -0.414684 0.25329599
1.247265 -0.489463 0.25336301
1.248632 -0.41468701 0.25329399
1.247685 -0.48945099 0.253185
1.249046 -0.41469401 0.25331801
1.248111 -0.48942399 0.25286001
1.249459 -0.41470399 0.253353
1.2485009 -0.489079 0.253501
1.24985 -0.415189 0.25370401
1.24894 -0.489023 0.25288999
1.250263 -0.41519701 0.25372699
1.249349 -0.489034 0.252942
1.250685 -0.41517401 0.25357899
1.249753 -0.48866001 0.25329
1.251103 -0.41516399 0.25350401
1.250178 -0.48784 0.253326
1.251538 -0.41470301 0.25325501
1.250587 -0.48785001 0.25337699
1.251967 -0.41465199 0.25294799
1.250991 -0.487872 0.25354099
1.252383 -0.41465399 0.25293699
1.2514369 -0.48740801 0.25299299
1.252789 -0.41468701 0.25310999
1.253213 -0.41466001 0.25293499
1.252261 -0.48741701 0.25297299
1.2536269 -0.41466999 0.25297201
1.252661 -0.48744699 0.253223
1.254047 -0.414655 0.252868
1.253042 -0.487515 0.253838
1.254451 -0.41469601 0.25308099
1.253458 -0.48791099 0.25359899
1.254842 -0.414781 0.25355101
1.2538821 -0.48829299 0.25321299
1.253879 -0.48789999 0.25343099
1.25525 -0.41520199 0.25353199
1.254288 -0.48791 0.253483
1.255671 -0.41518599 0.25342301
1.254693 -0.48792899 0.25361699
1.256083 -0.41480601 0.253636
1.255125 -0.487896 0.253225
1.255103 -0.48753801 0.25378999
1.256516 -0.41475099 0.25330299
1.25551 -0.487553 0.25389099
1.255523 -0.48712999 0.25380099
1.2569391 -0.414727 0.253149
1.2559299 -0.486743 0.25402701
1.2573611 -0.41470799 0.25302199
1.256351 -0.48633301 0.254015
1.2577749 -0.41471699 0.253057
1.256761 -0.48634201 0.25404599
1.2581429 -0.41526499 0.25376001
1.257181 -0.48633099 0.25388801
1.2585829 -0.41479599 0.25346601
1.257589 -0.48634401 0.25396299
1.2589869 -0.41483599 0.253674
1.2580169 -0.48631901 0.25366801
1.259384 -0.414895 0.25399101
1.258436 -0.486312 0.253539
1.259802 -0.41488999 0.25394401
1.258884 -0.48585099 0.253043
1.260208 -0.41492099 0.254107
1.259312 -0.48582801 0.25276899
1.260639 -0.414875 0.253824
1.259701 -0.48547599 0.25332499
1.261066 -0.41484201 0.25362
1.260112 -0.485484 0.25334901
1.261489 -0.41482201 0.25348201
1.260533 -0.485874 0.253052
1.261894 -0.41485801 0.25367001
1.260918 -0.485928 0.253526
1.262309 -0.41486099 0.25366801
1.261301 -0.48558599 0.25417799
1.262717 -0.41488901 0.25380701
1.2617 -0.48521399 0.254545
1.263135 -0.414884 0.253764
1.263544 -0.414904 0.253858
1.262525 -0.485223 0.254529
1.263962 -0.4149 0.25381601
1.262935 -0.48603299 0.25428599
1.2643729 -0.41491699 0.25389701
1.2633311 -0.48606601 0.254556
1.263345 -0.48564199 0.25446299
1.264788 -0.41492301 0.25390801
1.263775 -0.48521501 0.25429201
1.265205 -0.41492 0.25387499
1.264176 -0.485241 0.25448599
1.2656291 -0.41489899 0.25373599
1.2645659 -0.48528299 0.254848
1.266065 -0.414846 0.253416
1.264986 -0.485275 0.25471801
1.26648 -0.41445401 0.253566
1.265397 -0.48528299 0.25473899
1.26691 -0.414417 0.253333
1.265821 -0.48486599 0.25466999
1.267329 -0.41441199 0.253286
1.266239 -0.48486301 0.254585
1.2677571 -0.41438299 0.253104
1.266664 -0.48484799 0.25439301
1.268176 -0.414379 0.25306299
1.267073 -0.48526001 0.25430501
1.268581 -0.41441101 0.25322801
1.267496 -0.48484701 0.25427899
1.268983 -0.41444999 0.25343299
1.267903 -0.48486 0.25435099
1.2678829 -0.48449099 0.254792
1.2678829 -0.48409101 0.25492799
1.268037 -0.47902101 0.25411901
1.268059 -0.47858199 0.253907
1.268078 -0.47814801 0.253746
1.268097 -0.477714 0.253584
1.268102 -0.47730401 0.25363699
1.268103 -0.47690099 0.25375599
1.268122 -0.47646701 0.25359201
1.26939 -0.414478 0.25357401
1.26831 -0.48367 0.25482601
1.2684211 -0.48108199 0.25391299
1.268445 -0.48023701 0.25379401
1.268425 -0.47986999 0.25423601
1.268434 -0.47945401 0.25423601
1.2685601 -0.476028 0.25334099
1.268564 -0.475618 0.25340301
1.26854 -0.47525999 0.25390801
1.269814 -0.41446099 0.25345799
1.268734 -0.483657 0.25464901
1.268742 -0.48324299 0.254659
1.268768 -0.48159599 0.25478601
1.268814 -0.48111799 0.254206
1.268948 -0.47487101 0.25410599
1.270247 -0.41481701 0.25306499
1.2691669 -0.48322901 0.254475
1.269172 -0.48281899 0.25452599
1.269176 -0.482411 0.25458801
1.269169 -0.48201999 0.254821
1.269379 -0.47444499 0.25397301
1.2693959 -0.474013 0.25383899
1.269387 -0.473627 0.25410199
1.269375 -0.473248 0.254419
1.269387 -0.472424 0.25448799
1.269473 -0.47066799 0.25371599
1.270643 -0.414873 0.25336599
1.2698489 -0.47194201 0.25388601
1.269855 -0.47032699 0.254309
1.269859 -0.469917 0.25437
1.2698931 -0.46945599 0.25399199
1.271031 -0.41495001 0.25378501
1.270317 -0.46904001 0.25396001
1.27033 -0.46861601 0.253894
1.270353 -0.46817401 0.25368699
1.27037 -0.467742 0.253566
1.270373 -0.467334 0.25364
1.2703609 -0.46695501 0.25394401
1.2703511 -0.466171 0.254352
1.271437 -0.414978 0.25392801
1.27078 -0.46695101 0.25387299
1.270769 -0.46656999 0.25416601
1.270776 -0.465754 0.254311
1.270799 -0.46531001 0.25409201
1.270805 -0.464899 0.25413799
1.271845 -0.415001 0.25403899
1.271222 -0.46489799 0.25408801
1.271255 -0.464035 0.25386101
1.271264 -0.463617 0.253851
1.271266 -0.461606 0.254446
1.272288 -0.41453701 0.25377801
1.271677 -0.46322101 0.25398499
1.271678 -0.462818 0.25409999
1.271703 -0.46237099 0.25386399
1.271695 -0.46198499 0.25410599
1.272706 -0.41453499 0.253748
1.272115 -0.46117499 0.25426701
1.2721649 -0.46068099 0.253665
1.272169 -0.46027201 0.25373399
1.272174 -0.45986101 0.253786
1.273083 -0.41503599 0.25418001
1.2726049 -0.45983499 0.25354299
1.273496 -0.41504499 0.25421399
1.273007 -0.45986199 0.25371799
1.2729959 -0.45947999 0.25399399
1.272988 -0.45909399 0.25423399
1.27301 -0.45865199 0.25404501
1.2729909 -0.45828599 0.254446
1.273911 -0.415452 0.25411299
1.273403 -0.457894 0.25459799
1.274339 -0.41502401 0.25405699
1.273854 -0.457026 0.25432
1.2739021 -0.456534 0.25376099
1.274757 -0.41502401 0.25403899
1.274322 -0.45612699 0.25380901
1.27434 -0.45569199 0.253676
1.275184 -0.415001 0.25389001
1.274752 -0.45570099 0.25371
1.274775 -0.45525599 0.25351301
1.275617 -0.41496199 0.25365001
1.275188 -0.455264 0.25354001
1.276042 -0.41494501 0.25353399
1.2756391 -0.45480001 0.25316101
1.27564 -0.454395 0.253261
1.27645 -0.414969 0.25365201
1.276044 -0.454018 0.25353399
1.276021 -0.453659 0.25397399
1.276876 -0.41494799 0.25351301
1.2764471 -0.45324001 0.253932
1.27645 -0.452833 0.25401801
1.277282 -0.41497701 0.25365999
1.276881 -0.452806 0.25378799
1.2768821 -0.45240399 0.25390401
1.277707 -0.41495901 0.25353801
1.277306 -0.45238999 0.253773
1.27732 -0.45196301 0.25371
1.278123 -0.41496399 0.25354901
1.277742 -0.45195299 0.25360501
1.277735 -0.45156401 0.253815
1.2777359 -0.45116001 0.25392401
1.277733 -0.45076501 0.25409099
1.27852 -0.415012 0.25380301
1.278151 -0.450762 0.254042
1.2781399 -0.45038101 0.254311
1.278937 -0.415014 0.253793
1.27858 -0.45033899 0.253979
1.278571 -0.44995299 0.25421
1.279341 -0.41504699 0.25396499
1.2790051 -0.449922 0.25395599
1.2790101 -0.44951099 0.254013
1.2797689 -0.415023 0.25380799
1.279442 -0.44948399 0.25378701
1.280189 -0.41501799 0.253759
1.279853 -0.449094 0.253957
1.280593 -0.41505 0.25392699
1.2802629 -0.448704 0.25413099
1.2802629 -0.44830099 0.25424701
1.28101 -0.41505101 0.25391501
1.280683 -0.44789499 0.25430101
1.281435 -0.41503501 0.25380501
1.281114 -0.44786999 0.254094
1.281144 -0.447413 0.25382701
1.281863 -0.41501501 0.253667
1.281572 -0.447395 0.25367099
1.28228 -0.415016 0.25365901
1.281974 -0.44702101 0.25395501
1.281951 -0.44665799 0.25435001
1.2826951 -0.41502401 0.25368199
1.2823859 -0.44622499 0.25422201
1.283136 -0.41497299 0.25337601
1.282815 -0.44620401 0.254044
1.282849 -0.445741 0.253739
1.28328 -0.44571701 0.25354099
1.283319 -0.445245 0.253178
1.283973 -0.41497299 0.253335
1.283693 -0.44572601 0.25357899
1.2837141 -0.44528499 0.25342399
1.284367 -0.41502699 0.25362399
1.284132 -0.44528499 0.253398
1.284147 -0.44485599 0.25333199
1.284758 -0.41548699 0.25382599
1.284575 -0.44483799 0.253178
1.285176 -0.41548601 0.25380301
1.284986 -0.44444701 0.25334701
1.285601 -0.41547301 0.25370899
1.2854151 -0.444428 0.25318199
1.286032 -0.415849 0.253427
1.2860301 -0.41545001 0.25355601
1.285833 -0.44402599 0.253277
1.2864341 -0.41588399 0.253607
1.2862639 -0.4436 0.25320801
1.286834 -0.415921 0.2538
1.286674 -0.44321099 0.25338501
1.286656 -0.442839 0.25371099
1.2872159 -0.416399 0.25410399
1.287081 -0.44242299 0.25371099
1.287655 -0.417162 0.25362101
1.287655 -0.41675901 0.253728
1.287484 -0.44204599 0.25396901
1.287504 -0.441609 0.253849
1.288065 -0.41758201 0.25358599
1.287941 -0.441576 0.25359899
1.287956 -0.441147 0.253539
1.287958 -0.44073901 0.25362101
1.288422 -0.41851199 0.25407299
1.288443 -0.41806701 0.25393799
1.2883461 -0.44038999 0.25406501
1.288362 -0.43995801 0.25398499
1.288811 -0.418973 0.25428
1.288819 -0.41855401 0.25429401
1.2888139 -0.439899 0.25356099
1.288834 -0.43946099 0.253445
1.2888089 -0.43910101 0.25384101
1.289239 -0.41935599 0.25403699
1.28922 -0.41899201 0.25437301
1.2892129 -0.43872201 0.254087
1.2896529 -0.41936499 0.254071
1.2896219 -0.43873799 0.25416899
1.290069 -0.41937101 0.25408101
1.290048 -0.43791801 0.254269
1.290478 -0.41938901 0.254168
1.290462 -0.43792501 0.25429201
1.290893 -0.437904 0.25412199
1.291297 -0.41982701 0.254226
1.291316 -0.437897 0.254051
1.291736 -0.41978899 0.25398201
1.29177 -0.43743101 0.25372699
1.292133 -0.420232 0.25409001
1.292166 -0.43746999 0.25395399
1.292558 -0.420221 0.254002
1.292591 -0.43705499 0.25396201
1.2929651 -0.42064601 0.25400501
1.292994 -0.43708199 0.25411201
1.293394 -0.421031 0.25376499
1.293377 -0.42065999 0.25406301
1.293413 -0.43708101 0.25408
1.293816 -0.42102599 0.25371799
1.293833 -0.43707901 0.25404599
1.29421 -0.42107299 0.25397101
1.294273 -0.43663901 0.253887
1.294293 -0.43620101 0.253775
1.294614 -0.42190701 0.25389799
1.294614 -0.42150399 0.25400501
1.294721 -0.436187 0.253654
1.294983 -0.422804 0.254199
1.295 -0.42236999 0.25412399
1.295012 -0.42194501 0.254105
1.295136 -0.43578899 0.253775
1.295107 -0.43543401 0.25419801
1.2953939 -0.42282 0.254271
1.295537 -0.43541399 0.254044
1.295517 -0.43504301 0.254365
1.295548 -0.434589 0.254145
1.295795 -0.423659 0.254228
1.295802 -0.42324299 0.25426099
1.295974 -0.434576 0.25404
1.295971 -0.43417701 0.254179
1.296198 -0.424494 0.25416401
1.296199 -0.42408901 0.25425899
1.296191 -0.4237 0.254455
1.296398 -0.43375999 0.25417399
1.296414 -0.43332899 0.254107
1.296425 -0.43290499 0.254087
1.296447 -0.432464 0.25395799
1.296604 -0.424923 0.25418401
1.296589 -0.42454401 0.25444099
1.296876 -0.432044 0.25393999
1.296923 -0.43156099 0.25354701
1.2969249 -0.428323 0.25435701
1.296995 -0.426992 0.25393501
1.297007 -0.42656699 0.253912
1.297008 -0.42616099 0.25400701
1.297004 -0.42576301 0.25414699
1.297026 -0.42532101 0.25402099
1.297327 -0.431586 0.25367901
1.297374 -0.43110201 0.25328499
1.297376 -0.430695 0.253371
1.297343 -0.430347 0.253829
1.29733 -0.42996401 0.254069
1.297332 -0.429557 0.25415301
1.297345 -0.429131 0.25411901
1.297335 -0.428743 0.254329
1.297339 -0.42792901 0.25449601
1.297394 -0.42743 0.25402099
