# .PCD v0.7 - Point Cloud Data file format
VERSION 0.7
FIELDS x y z
SIZE 4 4 4
TYPE F F F
COUNT 1 1 1
WIDTH 1567
HEIGHT 1
VIEWPOINT 0 0 0 1 0 0 0
POINTS 1567
DATA ascii
1.492633 0.39861 0.84683001
1.492889 0.39978701 0.84902298
1.492911 0.401097 0.84957099
1.476238 0.073679999 0.84741598
1.4760031 0.076190002 0.84265703
1.477605 0.076558001 0.848463
1.47659 0.078093998 0.84990501
1.477473 0.079228997 0.84637702
1.476534 0.080752999 0.848436
1.477657 0.082057998 0.84666401
1.477746 0.083453 0.84814
1.477728 0.084886 0.84725499
1.477842 0.086289003 0.84811598
1.477947 0.087789997 0.84928799
1.478132 0.089280002 0.85097402
1.477831 0.090466 0.84679198
1.478024 0.091959 0.84827399
1.477982 0.093284003 0.84789801
1.478395 0.094939999 0.85164702
1.478191 0.097524002 0.84873599
1.478521 0.099087998 0.85196799
1.478389 0.101759 0.84988201
1.478519 0.103168 0.85033399
1.478621 0.104567 0.85150301
1.47873 0.106069 0.85257202
1.478363 0.111249 0.84572601
1.49406 0.38802999 0.852952
1.493484 0.39325199 0.84374201
1.494348 0.39346099 0.85536301
1.494318 0.39489001 0.85478503
1.494162 0.39809 0.851174
1.494078 0.39963901 0.84947002
1.4943219 0.40081099 0.85197002
1.494615 0.40186301 0.855699
1.4786021 0.068195999 0.849401
1.478621 0.072182 0.84715003
1.477446 0.073638 0.84745699
1.479043 0.075343996 0.85196501
1.478817 0.076517999 0.84840101
1.478922 0.078018002 0.849572
1.478905 0.079351 0.84858203
1.4790601 0.082171001 0.84958601
1.479178 0.083575003 0.85034502
1.479068 0.084914997 0.84914702
1.479169 0.086414002 0.85042
1.4791 0.087665997 0.84809399
1.478934 0.088923998 0.84566098
1.479326 0.090673 0.85002702
1.479398 0.093401 0.85051298
1.479426 0.096151002 0.84956199
1.479463 0.097566001 0.84980601
1.479298 0.098724 0.84726799
1.47961 0.100483 0.85112
1.479512 0.101726 0.849509
1.479473 0.104391 0.84763098
1.479434 0.106955 0.84564799
1.479946 0.108771 0.85217297
1.494903 0.38858801 0.84735698
1.494849 0.39154899 0.846102
1.495275 0.39521199 0.85123801
1.495564 0.396263 0.85506898
1.4955339 0.39923099 0.85320002
1.4955519 0.402179 0.85266399
1.4791 0.066082999 0.84003198
1.4786479 0.066872999 0.849675
1.479534 0.069247998 0.84454
1.478224 0.070532002 0.84299201
1.4798 0.072231002 0.84801197
1.479918 0.073735997 0.84887701
1.480068 0.076654002 0.850088
1.480481 0.078309998 0.85383701
1.480278 0.080793001 0.85082102
1.4798501 0.081809998 0.84457898
1.480087 0.083380997 0.84760302
1.48028 0.084873997 0.84908497
1.4800971 0.087463997 0.845662
1.4805371 0.089193001 0.85136199
1.4804879 0.091954 0.84979397
1.480594 0.093355 0.85086
1.480571 0.094787002 0.85007697
1.48096 0.096433997 0.85444099
1.48071 0.098839 0.84998602
1.4808789 0.100424 0.85218698
1.480978 0.103262 0.85206097
1.480418 0.106849 0.84362799
1.471982 0.14545999 0.70258498
1.4721709 0.147052 0.704274
1.472344 0.14853799 0.70626801
1.49642 0.388064 0.85200799
1.4965219 0.389364 0.85307199
1.496085 0.394357 0.84529603
1.496941 0.394564 0.85712099
1.498147 0.395823 0.85832399
1.49654 0.39943299 0.85088098
1.497999 0.39902601 0.854509
1.497519 0.402704 0.84669602
1.479197 0.059420999 0.844778
1.4800791 0.061795 0.839746
1.48037 0.064786002 0.84260398
1.4806809 0.067782998 0.84495002
1.480544 0.070453003 0.84296602
1.4810129 0.072191 0.84794998
1.481257 0.073863998 0.85087401
1.481294 0.076517001 0.84961301
1.480958 0.07903 0.84485
1.481199 0.080603004 0.84777099
1.481452 0.082179002 0.85038501
1.481544 0.084913999 0.85035902
1.481509 0.086341001 0.84988302
1.48142 0.087586999 0.848068
1.481681 0.089166 0.85047698
1.481304 0.090263002 0.84557301
1.481701 0.091913998 0.84973103
1.481722 0.093323 0.85038501
1.482131 0.094977997 0.85423702
1.482169 0.096392997 0.85448098
1.482278 0.097893998 0.85554999
1.481935 0.100305 0.850887
1.483117 0.101693 0.85024703
1.473402 0.143976 0.70372099
1.473359 0.145401 0.70345098
1.473616 0.14707799 0.70606703
1.497139 0.394438 0.84420699
1.499135 0.39471701 0.85535502
1.49938 0.395789 0.85775
1.498883 0.399461 0.85034698
1.4988 0.40101001 0.848643
1.4988689 0.40253499 0.84817302
1.499146 0.40348199 0.85220701
1.48115 0.054859001 0.84000701
1.481582 0.056685001 0.846017
1.481698 0.059427999 0.84537601
1.4814399 0.060591999 0.84263098
1.481567 0.061999001 0.84318501
1.481688 0.063505001 0.84394699
1.481928 0.065177001 0.846973
1.4820499 0.066583 0.84763002
1.482075 0.067993999 0.84818202
1.482087 0.070739001 0.84763998
1.48215 0.072061002 0.84716499
1.482242 0.073657997 0.84874898
1.482304 0.074980997 0.84827399
1.482354 0.076399997 0.84821099
1.482451 0.077896997 0.84958702
1.48237 0.079145998 0.84756702
1.482592 0.082151003 0.849603
1.482702 0.083553001 0.85056698
1.482532 0.084808998 0.84823698
1.482506 0.086139001 0.84745198
1.48268 0.087626003 0.84944499
1.48265 0.088955 0.84876198
1.482771 0.090461001 0.84952402
1.483142 0.093441002 0.85289699
1.482875 0.095941 0.848957
1.474461 0.140816 0.70234001
1.47491 0.142547 0.70783597
1.474611 0.143934 0.70376199
1.474808 0.145428 0.70514101
1.474985 0.147016 0.707138
1.4999059 0.39528799 0.84903997
1.500325 0.396108 0.85451001
1.500149 0.39930099 0.85141098
1.500316 0.40048501 0.85329401
1.500351 0.403438 0.85234898
1.482469 0.054981001 0.84251601
1.48281 0.056650002 0.84554499
1.482923 0.058153 0.84651202
1.48295 0.059464 0.84695798
1.482994 0.060981002 0.847103
1.482965 0.062210001 0.84631401
1.4830739 0.063812003 0.847489
1.4830689 0.065049 0.84608603
1.483114 0.066467002 0.84612602
1.483228 0.067869999 0.84698701
1.483261 0.069383003 0.84743899
1.483236 0.070614003 0.84654802
1.483421 0.072104 0.84823501
1.483514 0.073700003 0.849819
1.484032 0.076857001 0.85473901
1.483591 0.080510996 0.84846598
1.483737 0.082024999 0.84861398
1.48391 0.083511002 0.85060698
1.48388 0.08484 0.84992403
1.483994 0.086243004 0.85078597
1.4839081 0.087590002 0.84897399
1.485554 0.088036999 0.85632098
1.484751 0.091390997 0.84356803
1.485335 0.093193002 0.85081297
1.485671 0.097602002 0.85371
1.475669 0.137732 0.702402
1.475837 0.13931701 0.70460302
1.475878 0.14083301 0.70485002
1.476079 0.14242899 0.70623201
1.475924 0.14388999 0.70370299
1.476357 0.14551599 0.70950198
1.501415 0.39629999 0.85260499
1.50151 0.39759699 0.85387301
1.501487 0.39902899 0.85308999
1.501335 0.40233001 0.849482
1.501323 0.40386599 0.84849799
1.483564 0.053536002 0.841694
1.483694 0.054944001 0.84214598
1.484154 0.056779001 0.84744
1.484112 0.058104001 0.84706402
1.484207 0.060941 0.84704101
1.484097 0.062180001 0.84573698
1.484215 0.063684002 0.84660202
1.484176 0.065011002 0.84612298
1.484315 0.066422001 0.846371
1.484496 0.067910999 0.84816003
1.48479 0.071002997 0.85101998
1.484549 0.072071999 0.84776002
1.4845949 0.073490001 0.84780002
1.484625 0.074901998 0.848248
1.4846441 0.077648997 0.84750301
1.484766 0.079154998 0.84826499
1.484947 0.080643997 0.85005403
1.486342 0.080854997 0.85328501
1.484955 0.083388001 0.84961498
1.486286 0.083513997 0.85181701
1.48592 0.088593997 0.84486598
1.4768209 0.13332801 0.70273298
1.4770581 0.13489901 0.70575702
1.477093 0.137851 0.70481199
1.477206 0.139355 0.705778
1.477187 0.140788 0.70489299
1.47732 0.142397 0.70545399
1.477417 0.143895 0.70683002
1.5021141 0.39414299 0.84580398
1.502452 0.399454 0.84944397
1.502721 0.40039799 0.85368198
1.502504 0.40371501 0.84914899
1.472446 0.026036 0.70002002
1.472469 0.028884999 0.69927698
1.47259 0.030491 0.70014399
1.4727139 0.032097999 0.70090902
1.484817 0.047990002 0.84363902
1.484699 0.049325999 0.842646
1.484858 0.052147001 0.84354699
1.484992 0.053656999 0.84400201
1.485216 0.055323999 0.84743702
1.485257 0.057978 0.84607399
1.4852099 0.059301998 0.845801
1.485526 0.061062001 0.849549
1.485593 0.062385999 0.84897202
1.4855421 0.063809 0.84890598
1.485545 0.065048002 0.84729898
1.485646 0.066547997 0.84857202
1.485497 0.067709997 0.84562498
1.485649 0.069389999 0.84834099
1.485847 0.070784003 0.84961498
1.485736 0.073362 0.84691298
1.487097 0.074900001 0.849563
1.487294 0.076494001 0.85104799
1.487108 0.077644996 0.84902197
1.486101 0.079282001 0.85036403
1.487339 0.080553003 0.850748
1.4873331 0.081988998 0.84955603
1.486269 0.082106002 0.85106099
1.487324 0.085965998 0.84802198
1.478246 0.133347 0.70503801
1.478299 0.134867 0.70497799
1.478564 0.136447 0.70728499
1.478525 0.13787401 0.70691198
1.478647 0.13937999 0.70767403
1.478636 0.140815 0.70658398
1.503372 0.39398101 0.84707302
1.503809 0.39774799 0.85200697
1.503907 0.399046 0.85317302
1.503877 0.400475 0.85259497
1.5038379 0.403541 0.85103601
1.504192 0.404376 0.85558099
1.473515 0.018398 0.69975001
1.473623 0.02 0.70092398
1.4736561 0.021513 0.70137602
1.473784 0.023122 0.70203799
1.473689 0.024566 0.70053601
1.473668 0.025898 0.69964802
1.473779 0.027601 0.70082498
1.473753 0.028930999 0.70003998
1.473814 0.030454 0.69977498
1.473989 0.032241002 0.70198202
1.4856139 0.046092 0.83972001
1.485911 0.049286 0.842583
1.486506 0.051291998 0.84973103
1.486333 0.052446999 0.847399
1.486323 0.053782001 0.84620398
1.486462 0.056696001 0.84772199
1.48671 0.058371 0.85054302
1.4866329 0.059521001 0.84831601
1.486637 0.062263001 0.84797901
1.487015 0.065347001 0.85125297
1.486922 0.066591002 0.84954
1.488192 0.069475003 0.85048097
1.4881001 0.07062 0.84866297
1.488158 0.071941003 0.84829003
1.48831 0.073620997 0.85100597
1.48827 0.076284997 0.84912801
1.488265 0.085681997 0.844356
1.479506 0.13178299 0.70503902
1.479839 0.133449 0.70827299
1.47974 0.134892 0.706873
1.504742 0.393682 0.85049498
1.505017 0.397706 0.85204798
1.505031 0.39901301 0.85280102
1.505397 0.39995199 0.857144
1.505127 0.40338901 0.85148603
1.505015 0.404928 0.85049802
1.505252 0.40599799 0.85309798
1.4746571 0.0094100004 0.701599
1.4746391 0.010843 0.70071399
1.4746161 0.012274 0.69993103
1.474741 0.013881 0.70069599
1.4746341 0.015222 0.69939601
1.474768 0.016732 0.69985098
1.474812 0.018348999 0.70010102
1.474861 0.019867999 0.70014298
1.474906 0.021384999 0.70028698
1.475098 0.023078 0.70197999
1.474986 0.024517 0.70088702
1.4750561 0.025942 0.70031202
1.475021 0.02747 0.69994199
1.4763 0.028752999 0.69930202
1.476631 0.030618999 0.70274597
1.47524 0.032012999 0.70078802
1.487237 0.045329001 0.84662402
1.48751 0.046912 0.84872597
1.48761 0.048510998 0.85010499
1.4876651 0.049830999 0.84983498
1.4875751 0.051077001 0.848019
1.487473 0.052418999 0.84661698
1.487725 0.054095 0.84933603
1.487607 0.056570001 0.84673202
1.488265 0.058660999 0.85491002
1.4878041 0.060805 0.84787798
1.4879251 0.062311001 0.84864002
1.488951 0.063520998 0.84665698
1.488989 0.064935997 0.846901
1.489103 0.066339001 0.84776199
1.489368 0.067919999 0.85006899
1.489388 0.070666999 0.84932297
1.489617 0.072236001 0.85255098
1.489429 0.074824996 0.849231
1.4896851 0.076502003 0.85184801
1.489923 0.077973001 0.85476601
1.50606 0.39340299 0.85268599
1.506372 0.397302 0.85577399
1.506434 0.398725 0.85540402
1.5062701 0.40028301 0.853185
1.506045 0.40523699 0.84767097
1.507574 0.404717 0.85201502
1.507547 0.406147 0.85133499
1.507504 0.407572 0.85106403
1.475793 0.0018579999 0.70225602
1.475759 0.0032860001 0.70178002
1.4756809 0.0046350001 0.699763
1.475709 0.006147 0.70031703
1.4757791 0.007673 0.699848
1.475903 0.0092799999 0.70061302
1.47578 0.010715 0.69982702
1.4759001 0.012321 0.70069402
1.475949 0.013839 0.70073599
1.476158 0.015438 0.70191401
1.476127 0.016867001 0.70133603
1.476037 0.018212 0.69962603
1.477513 0.019951999 0.70208102
1.477634 0.021558 0.70294797
1.477628 0.022895001 0.70165098
1.47768 0.024514001 0.70169598
1.47648 0.026062001 0.70272201
1.48852 0.037315 0.85086203
1.488279 0.039623 0.84609699
1.488505 0.042629 0.84802997
1.488526 0.044039 0.84868401
1.488495 0.046705998 0.84660101
1.488662 0.048390999 0.84890699
1.488717 0.049711 0.84863698
1.4898781 0.051093001 0.84850901
1.488529 0.053537998 0.84381199
1.4899451 0.055158 0.84769702
1.490062 0.056662001 0.84856099
1.490049 0.057897002 0.84736401
1.490162 0.0594 0.84833097
1.490208 0.060817 0.84837002
1.4900939 0.062054999 0.84716898
1.490172 0.063483 0.84639001
1.4901299 0.064808004 0.84601402
1.490298 0.066393003 0.84821498
1.490572 0.067975998 0.850317
1.490589 0.069384001 0.85107303
1.4905829 0.070721 0.84977603
1.49055 0.071948998 0.84908998
1.490675 0.073455997 0.84974998
1.507273 0.39336199 0.852624
1.508709 0.39876801 0.85404801
1.508816 0.400069 0.85500902
1.5089591 0.401245 0.85750598
1.5088069 0.40444601 0.85379303
1.508948 0.40706101 0.85499501
1.476858 -0.005781 0.702088
1.476806 -0.0042579998 0.70212698
1.476788 -0.0028260001 0.70124203
1.476989 -0.0012300001 0.70262402
1.476943 0.001633 0.70105898
1.4770041 0.003156 0.70079398
1.476977 0.0046859998 0.70021898
1.477018 0.0062020002 0.70046598
1.477084 0.0076259999 0.69999403
1.47848 0.0092759999 0.701828
1.477232 0.010844 0.70152003
1.478375 0.012056 0.69913101
1.478554 0.013844 0.70123601
1.4786201 0.015269 0.70076299
1.47859 0.016697001 0.700185
1.478832 0.018571001 0.70332003
1.478961 0.020079 0.70387697
1.478943 0.021512 0.70299202
1.479059 0.023117 0.70396203
1.489363 0.034093998 0.84721601
1.489058 0.035179 0.84303099
1.489285 0.038084999 0.84486002
1.48982 0.040107999 0.850981
1.48949 0.042323001 0.84579998
1.4894609 0.043652002 0.84511697
1.4896359 0.045340002 0.84721899
1.490805 0.047963001 0.84538102
1.489998 0.048517998 0.85100698
1.490999 0.049456 0.84686297
1.491171 0.051042002 0.84896201
1.490996 0.053635001 0.84533399
1.491212 0.055298999 0.84897399
1.491418 0.056696001 0.85004401
1.4912781 0.059363998 0.84816301
1.49148 0.060860001 0.84943998
1.491362 0.062097002 0.84834099
1.4913599 0.063435003 0.84694201
1.4914531 0.064930998 0.84842002
1.491726 0.066514 0.85052198
1.491835 0.068016 0.851592
1.491358 0.070254996 0.845074
1.509788 0.39895701 0.852449
1.510077 0.39990699 0.85617602
1.5099519 0.40167901 0.85314298
1.509884 0.403332 0.851134
1.5098979 0.40463901 0.851888
1.5099601 0.40606201 0.85151798
1.477896 -0.0077089998 0.699714
1.478007 -0.0059059998 0.70099598
1.478195 -0.004214 0.70279098
1.478114 -0.002966 0.70077097
1.478146 -0.0013520001 0.70132798
1.4794199 2.9999999e-05 0.70089602
1.479405 0.001464 0.69990802
1.479522 0.0030680001 0.70087802
1.479494 0.0045989999 0.70030302
1.479548 0.006019 0.70013797
1.479744 0.0077129998 0.70172697
1.479726 0.0091460003 0.70084202
1.479753 0.010758 0.70150203
1.4797601 0.012099 0.69989699
1.47972 0.013625 0.69962901
1.479968 0.015399 0.70255601
1.4800889 0.016905 0.703318
1.48036 0.018788001 0.70573598
1.4904079 0.031129999 0.84635198
1.490382 0.032561 0.84567201
1.490369 0.033794999 0.84447402
1.490419 0.035213999 0.84441102
1.490651 0.036883 0.847642
1.491892 0.038355 0.84813398
1.492141 0.039928999 0.85084999
1.4906141 0.042289998 0.84542799
1.492033 0.042507999 0.84804499
1.492138 0.044009 0.849217
1.4918801 0.046411 0.84496599
1.492157 0.048094999 0.84707099
1.492178 0.049504001 0.84772497
1.492067 0.052081998 0.84502202
1.492247 0.053670999 0.84691602
1.4925129 0.055250999 0.84922302
1.492546 0.056664001 0.84956902
1.492461 0.057912 0.84765202
1.4925539 0.059408002 0.84912997
1.492722 0.060993001 0.851331
1.492367 0.061896998 0.84570497
1.492548 0.063486002 0.84759903
1.492662 0.064888999 0.84846097
1.492703 0.066306002 0.848602
1.492676 0.068974003 0.84641701
1.4926209 0.071534 0.84484398
1.511294 0.39986801 0.85601097
1.5111361 0.401629 0.85379702
1.511068 0.40328199 0.851789
1.511041 0.404713 0.85110801
1.511145 0.40591201 0.85206699
1.5113159 0.407197 0.85395199
1.479131 -0.0090810005 0.70053899
1.479179 -0.0075619998 0.70058203
1.479174 -0.0062250001 0.69928402
1.480637 -0.0043899999 0.70215201
1.480639 -0.0030499999 0.70064998
1.480528 -0.001611 0.69955701
1.480582 -0.000191 0.69939202
1.480715 0.001419 0.69995201
1.480688 0.002849 0.69927198
1.4808789 0.004642 0.701069
1.4809999 0.006147 0.70183098
1.480885 0.0075849998 0.70084
1.480938 0.0091049997 0.70077997
1.481142 0.010802 0.70216501
1.4811749 0.012315 0.70261699
1.481173 0.013754 0.70132297
1.481197 0.015264 0.70197898
1.491767 0.022066999 0.85292298
1.491576 0.025792999 0.848095
1.491748 0.027379001 0.85019398
1.4915529 0.029865 0.846973
1.4928 0.031137999 0.84715199
1.4928499 0.032556999 0.84708899
1.492781 0.033810001 0.84476203
1.492874 0.035305999 0.846241
1.492927 0.036726002 0.84607601
1.493024 0.038224 0.84745198
1.493281 0.039902002 0.85006797
1.493057 0.043616999 0.84605902
1.493042 0.045051001 0.84507197
1.4929661 0.046201002 0.84284502
1.493336 0.048142999 0.84793299
1.493251 0.049291 0.84591001
1.493444 0.050884001 0.84749699
1.4935271 0.053716 0.847781
1.493641 0.055218998 0.84874803
1.4937249 0.056713 0.85043103
1.49386 0.058123 0.85078102
1.493906 0.059440002 0.85071498
1.493796 0.06078 0.84951699
1.4937021 0.062024001 0.84780401
1.493958 0.063702002 0.85042101
1.494173 0.066604003 0.85255599
1.512357 0.39995199 0.85471702
1.512422 0.401476 0.85434997
1.512327 0.40455899 0.85166103
1.5122271 0.406102 0.850366
1.512342 0.407406 0.85112298
1.512566 0.408571 0.85413402
1.481768 -0.010705 0.701406
1.481656 -0.0091660004 0.700418
1.481861 -0.0075690001 0.70169801
1.4818341 -0.0060390001 0.701123
1.48195 -0.0044339998 0.70209301
1.481856 -0.00309 0.70048499
1.48198 -0.001483 0.70125002
1.481971 -0.000147 0.700055
1.482091 0.0014590001 0.70092303
1.48198 0.0028979999 0.69983
1.48218 0.0045929998 0.70131701
1.4822921 0.0061969999 0.702389
1.4823281 0.0078110001 0.70284402
1.482394 0.0092350002 0.702371
1.482621 0.011103 0.70591497
1.493863 0.0242 0.84761798
1.494023 0.025883 0.85012901
1.494122 0.028720001 0.850003
1.494231 0.030222001 0.85107201
1.494264 0.032873999 0.84991401
1.494208 0.035533 0.848445
1.494318 0.036935002 0.84940898
1.494287 0.038364001 0.84883201
1.494266 0.039595999 0.847839
1.4941289 0.043503001 0.84434998
1.494381 0.04518 0.84706903
1.494423 0.046596002 0.847211
1.494675 0.048271999 0.84992999
1.494505 0.050666001 0.84599
1.494606 0.052165002 0.84726399
1.494859 0.053842001 0.84998298
1.4949 0.055257998 0.85012501
1.494866 0.056584999 0.84954399
1.49492 0.058005001 0.849379
1.495147 0.060911998 0.85120702
1.495121 0.062242001 0.85042202
1.494812 0.064563997 0.84483403
1.495124 0.066223003 0.84858
1.513459 0.400148 0.85250401
1.513561 0.401548 0.85367298
1.513575 0.40285501 0.85442603
1.513633 0.40427601 0.854159
1.51366 0.40712601 0.85331303
1.513572 0.40877301 0.851816
1.482936 -0.012263 0.70120001
1.482981 -0.010745 0.70134401
1.483041 -0.0091230003 0.70118499
1.483162 -0.007617 0.70194697
1.483059 -0.0061750002 0.70064902
1.483331 -0.0043919999 0.70296103
1.483308 -0.002961 0.70217901
1.483269 -0.001535 0.70180601
1.483268 -0.00019599999 0.70040601
1.483312 0.001421 0.700656
1.483492 0.0031099999 0.70265502
1.483528 0.0047240001 0.70310998
1.483938 0.0066800001 0.707174
1.483485 0.0089269998 0.70004201
1.483795 0.010886 0.70410401
1.4945199 0.015308 0.84391701
1.494628 0.01691 0.84509099
1.494584 0.019572999 0.84331501
1.494853 0.021155 0.84552002
1.494954 0.022754 0.84689897
1.494785 0.023809999 0.84435803
1.495104 0.025672 0.84811002
1.494935 0.028066 0.84416997
1.494905 0.029394999 0.84348702
1.494998 0.030892 0.84496498
1.4952461 0.032566 0.84778601
1.4953671 0.034072001 0.848548
1.495492 0.035580002 0.849208
1.495527 0.036892999 0.84944999
1.4953769 0.038155999 0.84660798
1.495495 0.039560001 0.84736699
1.49571 0.041324001 0.85111201
1.495625 0.042472001 0.84908998
1.495612 0.043806002 0.84799701
1.495687 0.046636 0.84848601
1.495665 0.047967002 0.84759802
1.495659 0.049304001 0.84630102
1.495844 0.050894 0.84809202
1.495806 0.052221 0.84761399
1.4961261 0.053982999 0.85126001
1.496101 0.055213001 0.85036999
1.496289 0.056805 0.85205901
1.495901 0.058936 0.84574598
1.4957629 0.062944002 0.842363
1.514521 0.400332 0.85131502
1.514765 0.40150401 0.85381597
1.514689 0.403155 0.85201198
1.514671 0.40458801 0.85112703
1.5148031 0.40566 0.85382599
1.514917 0.40860301 0.853396
1.515897 0.41023499 0.85039699
1.484192 -0.013828 0.70130301
1.4841731 -0.012395 0.700418
1.484218 -0.010878 0.70056301
1.4842401 -0.0078290002 0.70003003
1.48436 -0.0062230001 0.70089698
1.48456 -0.004528 0.70238501
1.4846129 -0.0030080001 0.70232499
1.484494 -0.001571 0.70143598
1.484639 -5.7000001e-05 0.70158398
1.484617 0.001374 0.70080203
1.4848011 0.003064 0.70269901
1.485114 0.0051250001 0.70676303
1.4958251 0.014123 0.84567201
1.495635 0.016511001 0.84224403
1.495949 0.018371001 0.84609801
1.496067 0.019876 0.84696198
1.4962341 0.022799 0.84776402
1.496124 0.024038 0.846461
1.496431 0.025896 0.850519
1.496489 0.027217001 0.850146
1.4964041 0.028465001 0.84822899
1.496358 0.030927001 0.84634501
1.496387 0.032439001 0.84689897
1.496714 0.034203 0.85034102
1.49668 0.035530999 0.84976
1.496802 0.037037 0.85052198
1.4964679 0.039349999 0.84554899
1.496762 0.042343002 0.84830499
1.49687 0.045182999 0.847974
1.496912 0.046498999 0.84801102
1.496945 0.048012 0.848463
1.497058 0.049516 0.84943002
1.497112 0.050935999 0.84926498
1.497221 0.052437998 0.85033399
1.4969929 0.053509999 0.846766
1.497102 0.055011999 0.847835
1.498505 0.063285001 0.84738702
1.498539 0.064599 0.84762901
1.5158809 0.40146899 0.85364801
1.517185 0.40426299 0.85366398
1.51595 0.40573499 0.85294402
1.51722 0.407116 0.85261399
1.517056 0.41031301 0.849208
1.4853719 -0.015382 0.70078897
1.485476 -0.013782 0.702066
1.485533 -0.01226 0.70190299
1.485599 -0.010836 0.70143098
1.48555 -0.0092129996 0.701473
1.485688 -0.007702 0.70182598
1.485652 -0.006174 0.701455
1.485764 -0.0045710001 0.70252699
1.485754 -0.0031349999 0.70143801
1.4858871 -0.001526 0.701998
1.486042 0.000155 0.704611
1.486246 0.001852 0.70599598
1.485602 0.0039459998 0.69588101
1.496495 0.012056 0.83969402
1.4968179 0.013819 0.843238
1.497071 0.015496 0.84595698
1.49683 0.016565001 0.84269601
1.497137 0.018422 0.84675503
1.49727 0.019932 0.84720999
1.497426 0.022752 0.84821302
1.497471 0.024169 0.84825301
1.497647 0.025857 0.85035503
1.4971319 0.027819 0.84198302
1.497233 0.029318999 0.843256
1.49747 0.030889999 0.84627998
1.497671 0.032485001 0.84766197
1.49783 0.034168001 0.850173
1.4977961 0.035495002 0.84959197
1.4977911 0.036731999 0.84819001
1.4980479 0.038410001 0.85080701
1.498022 0.03974 0.850021
1.498034 0.042385001 0.84937501
1.498067 0.043898001 0.84982598
1.498269 0.045394 0.85110402
1.498104 0.046551999 0.848566
1.498013 0.047897 0.846856
1.49909 0.050425999 0.84470499
1.498588 0.049897 0.85451603
1.497775 0.053047001 0.84186
1.498421 0.055133998 0.850344
1.517908 0.40221301 0.84635502
1.516915 0.401779 0.85071802
1.51834 0.40280101 0.85386997
1.5185 0.40552199 0.85466599
1.5186599 0.40660301 0.85664803
1.518378 0.410036 0.85129702
1.486703 -0.016859001 0.70161498
1.486685 -0.015426 0.70073003
1.486865 -0.013737 0.70273
1.486757 -0.012297 0.70153397
1.486878 -0.010691 0.702402
1.486841 -0.0078250002 0.70063198
1.486981 -0.006213 0.70098698
1.487065 -0.0045190002 0.70288098
1.487396 -0.0026529999 0.70632499
1.497642 0.0077510001 0.84023303
1.498202 0.010146 0.84862
1.49818 0.011378 0.84762698
1.4983079 0.016966 0.846551
1.49848 0.018552 0.84864998
1.498513 0.021204 0.84749198
1.498494 0.022637 0.84660703
1.498608 0.024040001 0.84746802
1.498608 0.026781 0.84723401
1.498585 0.028213 0.84645098
1.498762 0.030939 0.846838
1.4987741 0.032444999 0.84780103
1.4990309 0.034123 0.85041797
1.4990211 0.035459001 0.84922302
1.4989361 0.036605999 0.84720099
1.499104 0.038291 0.84950697
1.499138 0.039604001 0.84974802
1.499263 0.041211002 0.85051298
1.499166 0.042355001 0.84879798
1.49946 0.045446999 0.85165799
1.519568 0.40286499 0.853504
1.519574 0.40406999 0.85435599
1.519559 0.405604 0.85347402
1.519621 0.40702701 0.853104
1.519662 0.408443 0.85324597
1.5195791 0.409991 0.851542
1.4878761 -0.018516 0.70120102
1.4879251 -0.016997 0.70124298
1.487902 -0.015565 0.70046097
1.488166 -0.013785 0.70297801
1.488067 -0.012342 0.70157802
1.488246 -0.010653 0.70357698
1.4881459 -0.0078720003 0.70077801
1.4884681 -0.0059090001 0.70453203
1.488711 -0.004036 0.70766598
1.499028 0.0081580002 0.84387898
1.499397 0.011338 0.84746301
1.49948 0.014171 0.84774601
1.499711 0.015939999 0.85108298
1.499452 0.019579999 0.84532702
1.499573 0.021086 0.84608901
1.499632 0.022407999 0.84571701
1.49972 0.024003001 0.84740299
1.499766 0.025420001 0.84744197
1.499959 0.027013 0.849029
1.500072 0.028517 0.84999597
1.4997391 0.03073 0.84491801
1.5000499 0.032489002 0.84876901
1.50018 0.033998001 0.84932601
1.5014 0.035463002 0.85033
1.5014631 0.036784999 0.84985501
1.501694 0.038555 0.85319102
1.500342 0.039661001 0.84999597
1.501726 0.041306999 0.85213798
1.5204639 0.40330401 0.84903502
1.5208319 0.40544599 0.85433298
1.520712 0.408759 0.84990698
1.520722 0.41006401 0.85076302
1.489203 -0.019994 0.70213002
1.4891599 -0.018469 0.70196402
1.489205 -0.016952001 0.70210898
1.4892859 -0.015422 0.70133197
1.489378 -0.013826 0.70291603
1.489447 -0.012301 0.70244598
1.489476 -0.010789 0.70300001
1.490816 -0.0091209998 0.70370603
1.48972 -0.0074760001 0.70473802
1.489346 -0.0051389998 0.69822598
1.499913 0.003512 0.840505
1.5004309 0.00563 0.84714001
1.50016 0.0080270004 0.84319699
1.500164 0.0092669996 0.84158999
1.5005881 0.011391 0.84801799
1.50065 0.012814 0.84764802
1.500554 0.013957 0.84593201
1.500608 0.015277 0.845662
1.500982 0.017321 0.85075301
1.500917 0.020076999 0.849594
1.501031 0.021481 0.850456
1.50103 0.022719 0.84895098
1.500919 0.025296999 0.84624797
1.500877 0.026621999 0.84587198
1.502203 0.026846001 0.84828103
1.5022531 0.029402999 0.846609
1.502282 0.030815 0.84705698
1.501132 0.03104 0.84825402
1.502462 0.032504 0.84905702
1.502833 0.034345999 0.85404003
1.502537 0.035333999 0.849545
1.521453 0.40373701 0.84477401
1.521987 0.40398401 0.85453898
1.5221061 0.40528899 0.85519302
1.5221159 0.40659499 0.856049
1.52184 0.410366 0.84824598
1.521858 0.41167501 0.84889698
1.491864 -0.019907 0.70386302
1.491786 -0.018557001 0.701846
1.49168 -0.017216999 0.70054603
1.490768 -0.01512 0.704979
1.492067 -0.01373 0.703933
1.500973 -0.000787 0.84073299
1.5012881 0.001074 0.84458703
1.5013289 0.0024900001 0.84472901
1.501493 0.0041740001 0.84713799
1.501543 0.0054919999 0.84697002
1.501676 0.0071020001 0.84753001
1.501688 0.0086089997 0.84849298
1.50165 0.011174 0.84650999
1.501821 0.01286 0.84871399
1.501745 0.01401 0.84648699
1.501943 0.015504 0.847866
1.501853 0.01675 0.84605098
1.502007 0.019769 0.84726501
1.503292 0.021219 0.84919298
1.50327 0.02265 0.84841102
1.503333 0.023872999 0.84783
1.503441 0.025474999 0.84900498
1.503467 0.026885999 0.84955603
1.503588 0.028392 0.85031801
1.503491 0.030773001 0.84709799
1.503511 0.032283001 0.84785599
1.503877 0.034224 0.85304701
1.503817 0.035379 0.85040998
1.523219 0.40404999 0.85407001
1.523241 0.40536001 0.85461903
1.522971 0.40879601 0.84895998
1.5230089 0.410211 0.849204
1.523311 0.41116601 0.85262299
1.523275 0.41269299 0.85225302
1.4932719 -0.018153001 0.70549601
1.50199 -0.0065009999 0.84082001
1.502401 -0.0030429999 0.846156
1.502761 0.001474 0.848544
1.502739 0.0028049999 0.84765601
1.5026259 0.0040429998 0.84645498
1.502823 0.0056380001 0.84794003
1.502797 0.006968 0.84715497
1.502767 0.0082970001 0.84647101
1.50274 0.0097270003 0.84579098
1.504176 0.011453 0.84926999
1.503004 0.014148 0.847969
1.5042551 0.015423 0.848046
1.503028 0.016797001 0.84701598
1.5042779 0.018172 0.84719801
1.504403 0.019779 0.84796202
1.504415 0.022423999 0.84731603
1.504647 0.024193 0.85065198
1.5047719 0.025699999 0.85131198
1.504805 0.027114 0.85165799
1.504784 0.028446 0.85077
1.505079 0.030199001 0.85503101
1.5242569 0.40436301 0.85103798
1.524358 0.40686399 0.85315901
1.524213 0.41016799 0.849347
1.52443 0.41113099 0.85235298
1.503763 -0.0081249997 0.85088497
1.5033211 -0.0062750001 0.84312701
1.503513 -0.004582 0.84482002
1.503749 -0.0029120001 0.84794801
1.503579 -0.001656 0.84561801
1.503785 -0.000159 0.846793
1.503885 0.001441 0.84817201
1.504976 0.002635 0.84711301
1.505021 0.0040529999 0.84715301
1.505198 0.0056400001 0.84914899
1.504994 0.0067210002 0.84496802
1.505251 0.0082989996 0.84747899
1.505162 0.0095450003 0.84566402
1.505303 0.01256 0.84718502
1.505492 0.014151 0.84887397
1.505478 0.018227 0.84754801
1.5055701 0.020962 0.84752101
1.505872 0.022918001 0.85178697
1.505901 0.025568999 0.85073203
1.505857 0.028232001 0.84895599
1.5252939 0.40467501 0.84800702
1.525597 0.405393 0.85377699
1.525821 0.406459 0.85668403
1.526626 0.410083 0.84952998
1.525574 0.41120499 0.851574
1.526855 0.41278899 0.85114801
1.504265 -0.010738 0.84099001
1.504576 -0.0088790003 0.84494603
1.504764 -0.0071879998 0.84674102
1.504719 -0.0059639998 0.84636199
1.505901 -0.0045759999 0.84572202
1.505934 -0.0031620001 0.84606802
1.504872 -0.001706 0.846071
1.506117 -0.00023400001 0.84645998
1.50629 0.0013530001 0.84855902
1.506248 0.0026779999 0.84818298
1.5062259 0.004009 0.84729499
1.5063601 0.0054190001 0.84764498
1.506397 0.0069340002 0.84799403
1.506367 0.0082630003 0.84731102
1.506303 0.0094170002 0.84477699
1.506319 0.010925 0.84563798
1.506516 0.012519 0.84712303
1.506566 0.013938 0.84706002
1.506596 0.01525 0.847404
1.5066251 0.016762 0.84795803
1.506876 0.018538 0.85078198
1.5067739 0.019780001 0.84927398
1.50682 0.021198001 0.84931302
1.506891 0.022523001 0.848634
1.506858 0.023751 0.84794801
1.5262721 0.40500399 0.84394801
1.527668 0.40601599 0.84781599
1.5267299 0.40690199 0.85190898
1.5279469 0.40826499 0.85290903
1.5281349 0.40945601 0.85428101
1.527962 0.41275099 0.85118401
1.50555 -0.01193 0.84325701
1.505604 -0.01051 0.84309202
1.5069129 -0.010191 0.84601599
1.507216 -0.0083349999 0.85017699
1.507287 -0.0070090001 0.84949702
1.5071729 -0.0057720002 0.84829599
1.507197 -0.003022 0.84744799
1.50731 -0.001519 0.84841502
1.5073169 0.0024629999 0.84647101
1.507429 0.0040660002 0.847543
1.507472 0.005382 0.84758002
1.5075999 0.0069909999 0.84824198
1.507558 0.008316 0.847866
1.507549 0.0095509999 0.84656602
1.5076489 0.012389 0.84644002
1.507876 0.014157 0.84987903
1.507761 0.016633 0.84717298
1.507954 0.018226 0.84876001
1.508134 0.019915 0.85075903
1.508235 0.021414001 0.85203302
1.528783 0.406216 0.84529603
1.5292929 0.40645599 0.85567498
1.5291981 0.40953901 0.85298598
1.529289 0.41247401 0.85316998
1.529213 0.41402501 0.85126102
1.5080709 -0.011552 0.84622401
1.508249 -0.010064 0.84811598
1.508307 -0.0086430004 0.847848
1.5083309 -0.0071319998 0.84850401
1.5083981 -0.005808 0.84792697
1.508284 -0.0045699999 0.846726
1.508485 -0.0029750001 0.84810799
1.508589 -0.001374 0.84938502
1.5085551 -4.7000001e-05 0.848804
1.508492 0.001007 0.846165
1.508597 0.002508 0.84733599
1.508777 0.0041970001 0.84933501
1.508751 0.0055269999 0.84855002
1.508653 0.0067699999 0.84693998
1.508803 0.009788 0.84825599
1.508908 0.011289 0.84942698
1.509047 0.0127 0.849675
1.5089999 0.014124 0.84950602
1.508979 0.015355 0.84851301
1.509239 0.017034 0.85102803
1.529816 0.40652701 0.84236699
1.530396 0.40665299 0.85346299
1.530425 0.40806499 0.85391098
1.530468 0.41091999 0.85265702
1.530479 0.413865 0.85232598
1.509289 -0.01293 0.84745902
1.509461 -0.010105 0.84805298
1.509506 -0.0085880002 0.848198
1.509485 -0.0073560001 0.84720498
1.509514 -0.0059440001 0.84765399
1.50964 -0.004437 0.84831399
1.509668 -0.0029249999 0.84886801
1.5096 -0.001772 0.84643602
1.5097131 -0.00026900001 0.84740299
1.509691 0.0010629999 0.846515
1.509797 0.002563 0.84768599
1.509881 0.0041570002 0.84947503
1.509876 0.0053940001 0.84807199
1.509908 0.006908 0.84852397
1.509962 0.0083280001 0.84835899
1.510345 0.010274 0.85314
1.510226 0.012749 0.85053599
1.510381 0.015667999 0.85164499
1.531127 0.40624499 0.84476203
1.531474 0.40684101 0.85186398
1.531763 0.40789199 0.85569501
1.531705 0.40921199 0.85572898
1.531665 0.412514 0.85181701
1.531675 0.41381899 0.85267299
1.510394 -0.014572 0.846223
1.510682 -0.011281 0.84939599
1.5107909 -0.00978 0.85046601
1.510774 -0.0085460003 0.84937
1.51055 -0.0075719999 0.845595
1.510638 -0.0059770001 0.84728098
1.510777 -0.0045659998 0.84752899
1.5108809 -0.002965 0.84880602
1.510906 -0.001455 0.84946197
1.510905 -0.000216 0.84795702
1.511014 0.001286 0.84902602
1.511059 0.0027030001 0.84906602
1.5110379 0.0039349999 0.84807301
1.51108 0.005351 0.84821498
1.511188 0.0069530001 0.84938902
1.51131 0.0084589999 0.850151
1.511629 0.011823 0.85517299
1.53254 0.40716299 0.84811598
1.5327851 0.408099 0.85296798
1.532881 0.410835 0.85283899
1.5328079 0.41258699 0.85103798
1.532627 0.41601601 0.84569001
1.5332561 0.415921 0.85790902
1.5115809 -0.014521 0.84688002
1.511807 -0.012653 0.85042298
1.51168 -0.011683 0.84675401
1.511781 -0.010184 0.848028
1.511721 -0.0090290001 0.84539098
1.511885 -0.0073449998 0.84780002
1.511986 -0.0058459998 0.84907401
1.511905 -0.0045980001 0.847054
1.511959 -0.003277 0.846784
1.511924 -0.00185 0.84630799
1.512042 -0.00034500001 0.84717298
1.5120749 0.001068 0.84751898
1.512117 0.0024840001 0.84766102
1.512314 0.0040790001 0.84914601
1.5125329 0.0058439998 0.85278898
1.533505 0.40758801 0.84446901
1.533754 0.40852499 0.84921902
1.534235 0.40889201 0.85785699
1.534197 0.411957 0.85629803
1.5340151 0.41538599 0.85094899
1.535216 0.416881 0.84990299
1.5344779 0.41718599 0.85870302
1.5129451 -0.015623 0.84976798
1.513036 -0.012688 0.84995198
1.513002 -0.01136 0.84937102
1.5131691 -0.0084370002 0.850173
1.513194 -0.0058880001 0.849114
1.513176 -0.004555 0.84812403
1.513155 -0.0033229999 0.84713101
1.513171 -0.001715 0.84809703
1.513221 -0.00029699999 0.84803402
1.514782 0.001698 0.85367697
1.513557 0.0029730001 0.85254198
1.513572 0.0042170002 0.85062802
1.513732 0.005899 0.85313898
1.534785 0.40589401 0.846416
1.535002 0.406957 0.849527
1.534917 0.40860501 0.84792799
1.535244 0.40943101 0.85319
1.536543 0.41058499 0.854496
1.536451 0.41223001 0.85310102
1.536293 0.41576701 0.84724402
1.536392 0.41696501 0.84830499
1.5365649 0.417914 0.85243702
1.514078 -0.016891999 0.85069501
1.514053 -0.015660999 0.849805
1.514178 -0.014054 0.85056901
1.514097 -0.012906 0.848445
1.514147 -0.011487 0.848382
1.514181 -0.010173 0.84862298
1.515422 -0.0087019997 0.84911501
1.515452 -0.0072900001 0.84956402
1.51439 -0.0058340002 0.84956598
1.514284 -0.0045929998 0.84816098
1.515615 -0.0043680002 0.85046798
1.5156471 -0.001616 0.849415
1.514442 -0.00043399999 0.84766197
1.53602 0.408802 0.845716
1.537519 0.40947399 0.851834
1.537712 0.410429 0.85545403
1.537845 0.411939 0.85590899
1.537641 0.41525999 0.85106999
1.537764 0.41633001 0.85397398
1.515291 -0.016931999 0.85063303
1.516502 -0.012994 0.84883201
1.516199 -0.010971 0.84282702
1.5152 -0.010569 0.845469
1.516517 -0.0090089999 0.84668398
1.5166759 -0.0073259999 0.849195
1.538649 0.40978 0.84900999
1.538806 0.410624 0.85344601
1.538826 0.41236901 0.85185301
1.53886 0.413683 0.85209501
1.538867 0.416527 0.85176098
1.539035 0.41771099 0.85364401
1.539011 0.41924199 0.85296601
1.517607 -0.017013 0.85070997
1.517706 -0.014175 0.85058397
1.517643 -0.013121 0.84794497
1.51771 -0.010294 0.848638
1.517696 -0.0089600002 0.84754503
1.5180399 -0.0068259998 0.85345799
1.539675 0.410088 0.84628499
1.539928 0.410927 0.85082698
1.539946 0.41233501 0.851583
1.540041 0.415171 0.85156
1.540009 0.41683701 0.84863001
1.540011 0.41813901 0.84969002
1.54022 0.4192 0.85300702
1.518819 -0.017053001 0.85064799
1.518641 -0.014662 0.84691298
1.518822 -0.013073 0.84880698
1.518708 -0.010596 0.84610099
1.540887 0.41004699 0.846223
1.541141 0.41088599 0.85076499
1.541272 0.412058 0.85356897
1.541193 0.41524699 0.85057598
1.541471 0.41609401 0.85450399
1.541399 0.41774601 0.85259801
1.520028 -0.017095 0.85068798
1.520039 -0.013112 0.84864199
1.5199879 -0.010551 0.84696603
1.542109 0.41131201 0.84701598
1.542598 0.411782 0.855555
1.542523 0.41497201 0.85246003
1.542549 0.41628301 0.85290599
1.542522 0.41771299 0.85222501
1.5424711 0.421011 0.84862101
1.521134 -0.014657 0.84771597
1.52121 -0.013066 0.84970897
1.521107 -0.010586 0.84669602
1.515756 0.018652 0.701406
1.51588 0.020259 0.70217103
1.515993 0.021863 0.70324302
1.515994 0.023302 0.701846
1.516196 0.025162 0.70600402
1.5433 0.409962 0.84640598
1.543563 0.41220701 0.85190898
1.543817 0.41304499 0.85645097
1.543709 0.41636199 0.851717
1.544829 0.41796601 0.85026097
1.543682 0.419431 0.84985
1.545002 0.42045501 0.85310102
1.522406 -0.015853001 0.85029
1.522377 -0.014524 0.84960699
1.522351 -0.013194 0.848822
1.522346 -0.011957 0.84741902
1.522245 -0.010815 0.845806
1.517004 0.017084001 0.70171398
1.517365 0.019123999 0.70711303
1.517355 0.020559 0.70602298
1.517421 0.021983 0.70555103
1.517338 0.023432 0.70374101
1.517663 0.025459001 0.71006
1.5443749 0.41005 0.844805
1.544433 0.41147101 0.84453702
1.545821 0.41248101 0.84860998
1.546014 0.413436 0.85223001
1.5450701 0.41288099 0.857822
1.546283 0.41438001 0.85646802
1.546123 0.417579 0.85295999
1.546104 0.42088801 0.84853703
1.546404 0.421368 0.85676199
1.524633 -0.014687 0.84855199
1.524683 -0.013269 0.84848899
1.523613 -0.011815 0.84869701
1.524649 -0.010803 0.84629899
1.518119 0.012404 0.70019197
1.518239 0.014009 0.70105898
1.518387 0.015688 0.70387697
1.518553 0.017572001 0.70639402
1.5188 0.019347001 0.70932102
1.518766 0.020775 0.70884502
1.518692 0.022126 0.70672601
1.5188839 0.023819 0.70841801
1.519055 0.025505001 0.71062201
1.545543 0.411771 0.84222502
1.547016 0.41103199 0.84779203
1.547312 0.41315001 0.85493302
1.547317 0.414691 0.85353899
1.547393 0.41742101 0.85392201
1.547382 0.41895601 0.85293698
1.5473779 0.42049399 0.85174799
1.547542 0.423316 0.85254699
1.524668 -0.017253 0.85063797
1.525851 -0.016065 0.849787
1.5259171 -0.014641 0.84931499
1.5259629 -0.013223 0.84935403
1.525882 -0.012075 0.847229
1.52592 -0.01066 0.84747398
1.519603 0.011368 0.705239
1.5195839 0.012801 0.70435399
1.519955 0.014743 0.70944202
1.519864 0.016089 0.70773202
1.519981 0.017693 0.70870203
1.520062 0.020825 0.70930099
1.520111 0.022344001 0.70934302
1.520125 0.023686999 0.70753402
1.520099 0.025017999 0.70674902
1.548068 0.40990999 0.84574699
1.548111 0.411226 0.84578401
1.54826 0.413706 0.84923899
1.548615 0.41440499 0.85624099
1.548479 0.41761199 0.85211903
1.548571 0.42044699 0.852198
1.548654 0.42164001 0.85366797
1.527092 -0.013355 0.84877402
1.527163 -0.010527 0.849365
1.520792 0.0097169997 0.70441502
1.520963 0.011403 0.70661902
1.5210201 0.013024 0.70656198
1.521301 0.014974 0.71134001
1.521331 0.016386 0.71178901
1.52145 0.018092001 0.71276098
1.521508 0.019513 0.712493
1.52143 0.020863 0.71047598
1.521389 0.023727 0.70880902
1.521582 0.025319999 0.71039599
1.549127 0.41176799 0.84091198
1.549234 0.41293201 0.84433001
1.549509 0.41354099 0.850712
1.54977 0.414482 0.85515499
1.549805 0.41579601 0.85539597
1.549736 0.417449 0.85338801
1.5497251 0.41898501 0.85240299
1.549863 0.420396 0.852651
1.549711 0.42205799 0.85022902
1.549854 0.42323399 0.85272598
1.528145 -0.013575 0.84747201
1.5280679 -0.012425 0.84524399
1.528241 -0.010839 0.84734303
1.528357 -0.0092350002 0.84831297
1.522207 0.0099330004 0.70713502
1.522319 0.011537 0.70820701
1.522465 0.013415 0.71123499
1.522712 0.015189 0.71416199
1.522715 0.016528999 0.71266001
1.522747 0.018042 0.71311098
1.522908 0.021264 0.71433097
1.522902 0.022600999 0.71303397
1.522608 0.025028 0.707142
1.5505 0.41431201 0.84410298
1.5509011 0.41478801 0.85233098
1.5510091 0.41575301 0.85553902
1.5509779 0.41718099 0.85496098
1.55093 0.420481 0.85125399
1.5509681 0.42189601 0.85149801
1.5512331 0.422838 0.85583901
1.529529 -0.01193 0.84961301
1.529386 -0.010966 0.84635401
1.529506 -0.0093599996 0.84722102
1.529595 -0.0078640003 0.84880197
1.523512 0.0098869996 0.70728099
1.52367 0.011669 0.70989698
1.52377 0.013368 0.71138102
1.5240721 0.015324 0.71564698
1.523978 0.016569 0.713934
1.5251679 0.020738 0.71029299
1.525277 0.022338999 0.71146798
1.524906 0.024413001 0.70207798
1.52484 0.025767 0.699754
1.5516061 0.41297001 0.84307998
1.551999 0.41498399 0.85022098
1.552086 0.41617799 0.85158902
1.552165 0.41736901 0.85316098
1.5520329 0.42067799 0.849042
1.5521179 0.42220801 0.84816301
1.552393 0.42291701 0.85465002
1.530565 -0.010917 0.84721601
1.530695 -0.0094079999 0.84777302
1.530929 -0.0075380001 0.85111201
1.524791 0.010032 0.708251
1.526124 0.011497 0.708951
1.526198 0.013024 0.70837897
1.526412 0.014888 0.71223003
1.526517 0.016388001 0.71340102
1.526523 0.017828999 0.71190202
1.526206 0.020085 0.703852
1.5260791 0.021153999 0.700288
1.526292 0.023118 0.70424402
1.526298 0.024459001 0.70264
1.526456 0.026341001 0.70536101
1.526384 0.027492 0.70303202
1.552822 0.40975201 0.845393
1.552887 0.412916 0.84383899
1.5529211 0.41422901 0.84408098
1.553369 0.41578701 0.85459501
1.553208 0.42086199 0.84754902
1.554539 0.42034999 0.85178399
1.5545239 0.421884 0.85090202
1.553414 0.423224 0.85202801
1.554701 0.42460999 0.85128802
1.5319 -0.01069 0.84942001
1.53301 -0.009389 0.84795499
1.533064 -0.0080690002 0.84768498
1.531919 -0.0078419996 0.84877902
1.53343 -0.0060279998 0.85298002
1.527199 0.012359 0.70285898
1.527464 0.014403 0.708152
1.527642 0.01743 0.70875198
1.527293 0.022553001 0.69883001
1.527456 0.024336001 0.701343
1.527614 0.026118999 0.70395899
1.527732 0.027623 0.70482397
1.554055 0.41112101 0.84598398
1.554077 0.414307 0.84299499
1.555495 0.416628 0.84741098
1.554593 0.41585001 0.85433102
1.555696 0.417586 0.85082698
1.555702 0.41889 0.851785
1.555688 0.42196399 0.84961098
1.555869 0.424555 0.85235202
1.534096 -0.0096979998 0.84572798
1.534134 -0.0082830004 0.84597301
1.534479 -0.0062489999 0.85178
1.534533 -0.0048290002 0.85161501
1.528412 0.012318 0.702797
1.528654 0.014191 0.70593101
1.528827 0.015778 0.70802999
1.528728 0.017221 0.70662999
1.52879 0.018642999 0.70626003
1.528677 0.019818 0.70239198
1.528591 0.021165 0.70058
1.528885 0.023119001 0.70504999
1.528765 0.024290999 0.70138699
1.528978 0.026255 0.70534301
1.5288301 0.027318001 0.70229
1.555405 0.415333 0.84604102
1.5566469 0.416704 0.84642702
1.556881 0.417436 0.851376
1.5569299 0.418955 0.85141897
1.557072 0.41969299 0.85615897
1.557052 0.42310199 0.85184097
1.557032 0.42463499 0.85106099
1.5351779 -0.010009 0.84360403
1.535599 -0.007886 0.85013402
1.535683 -0.0062930002 0.85192299
1.535691 -0.005051 0.85021299
1.529933 0.015475 0.70529199
1.530117 0.017264999 0.70729399
1.529792 0.019517999 0.699449
1.529807 0.020862 0.69764
1.529928 0.022732001 0.70128202
1.5300961 0.024417 0.70358902
1.530275 0.026206 0.70569301
1.530126 0.027368 0.70274597
1.530323 0.028963 0.70423102
1.55795 0.41785899 0.84763098
1.55818 0.41869 0.85278702
1.558259 0.41988099 0.85435897
1.5582761 0.42129001 0.855115
1.55831 0.42447901 0.85181898
1.558324 0.42578599 0.85257202
1.536471 -0.0099600004 0.84416199
1.536715 -0.006784 0.84835702
1.536739 -0.005173 0.84911799
1.53115 0.015436 0.705127
1.531291 0.017047999 0.70548302
1.531285 0.018385001 0.70418602
1.531091 0.020808 0.69829798
1.531301 0.022771001 0.70235598
1.53146 0.024553001 0.70497203
1.531541 0.027585 0.70546597
1.531497 0.028746 0.70242
1.559083 0.415088 0.84728801
1.5591021 0.41793501 0.84664702
1.559258 0.418879 0.851188
1.55935 0.42007399 0.85245401
1.559469 0.42114201 0.85545999
1.559486 0.42278701 0.85386401
1.559446 0.42608899 0.849953
1.537578 -0.0099980002 0.844199
1.537557 -0.0087670004 0.84320599
1.537847 -0.0068140002 0.84777898
1.5380189 -0.0051279999 0.84998298
1.532429 0.015216 0.70321703
1.532567 0.017092001 0.70644999
1.532599 0.018604999 0.70690203
1.532608 0.021286 0.70379603
1.532635 0.022998 0.70455998
1.532828 0.024591001 0.70614702
1.534097 0.026171001 0.70602798
1.533965 0.027239 0.70256603
1.534035 0.028665001 0.70199198
1.560503 0.41871199 0.85276401
1.560693 0.41956601 0.85638201
1.560714 0.42097601 0.85703599
1.560724 0.42415699 0.85435301
1.5608881 0.42524001 0.856233
1.538787 -0.01004 0.844239
1.538867 -0.0084480001 0.84613001
1.538929 -0.007125 0.84565502
1.539156 -0.0052570002 0.849199
1.5392489 -0.00376 0.85067701
1.533764 0.015343 0.70531702
1.535143 0.017088 0.70766598
1.533857 0.018479001 0.70560902
1.5349621 0.019515 0.70147097
1.5351959 0.021384999 0.70481002
1.535363 0.02317 0.70722097
1.534112 0.024637001 0.70691001
1.535473 0.024672 0.70828998
1.535381 0.027356001 0.705181
1.535344 0.028619001 0.70203501
1.561427 0.41511601 0.846753
1.561695 0.418901 0.85086203
1.561784 0.41975901 0.85447699
1.561939 0.42257801 0.85548002
1.561859 0.42600399 0.85013503
1.561942 0.42719701 0.851605
1.539999 -0.010081 0.84417701
1.540143 -0.0084039997 0.84709799
1.540235 -0.0068069999 0.84868097
1.541468 -0.0041999999 0.84776801
1.536471 0.015609 0.70859498
1.53644 0.017138001 0.70812201
1.5363261 0.019650999 0.70285398
1.536502 0.021338999 0.704956
1.536581 0.023031 0.70695198
1.536642 0.024553999 0.70668697
1.536593 0.025813 0.703848
1.536635 0.027229 0.70398998
1.536489 0.028493 0.70104599
1.562701 0.41472301 0.84996498
1.56295 0.41993999 0.85318899
1.564188 0.42131099 0.85367799
1.563169 0.42230701 0.85736001
1.5643539 0.42557201 0.85307997
1.563118 0.42714399 0.85246402
1.5411071 -0.010119 0.84421402
1.542614 -0.0094450004 0.85012698
1.542888 -0.007497 0.85510999
1.541443 -0.0068490002 0.84872198
1.542592 -0.0042329999 0.84739602
1.542784 -0.0026400001 0.84898299
1.537649 0.015394 0.70668101
1.537753 0.017093999 0.70806301
1.5376149 0.019599 0.70340902
1.537834 0.022903999 0.70576102
1.537892 0.024325 0.70549297
1.537814 0.025775 0.70358098
1.5378799 0.027099 0.703004
1.537748 0.028267 0.69964701
1.565186 0.42078099 0.84580302
1.564191 0.42000899 0.85251498
1.565478 0.421159 0.854128
1.565394 0.42280701 0.85252899
1.565475 0.42433599 0.85175198
1.565474 0.425538 0.85280901
1.565523 0.42859599 0.85156
1.543722 -0.0094830003 0.850164
1.543801 -0.0082550002 0.84917498
1.543776 -0.0070239999 0.84828401
1.543787 -0.0041789999 0.847848
1.54392 -0.0026700001 0.84830302
1.538813 0.016612001 0.70378101
1.538905 0.018208999 0.70536399
1.538919 0.019652 0.70366001
1.539129 0.021515001 0.70761299
1.539188 0.024375999 0.70594901
1.539174 0.02581 0.70496202
1.539215 0.027326001 0.70520902
1.539171 0.028487001 0.70216298
1.539139 0.030014999 0.70169002
1.566415 0.42050901 0.84768403
1.566605 0.42122701 0.85375798
1.566696 0.42252201 0.855129
1.5666 0.42584199 0.850088
1.566867 0.42644799 0.85667503
1.544979 -0.0057290001 0.847027
1.545017 -0.004315 0.84727103
1.5450701 -0.0028949999 0.84710598
1.5452631 -0.00093699998 0.851574
1.540226 0.018167 0.70510101
1.540258 0.019780001 0.70565802
1.5403841 0.021288 0.70631701
1.540372 0.022823 0.70533299
1.5404299 0.024245 0.70506501
1.5403939 0.027009999 0.70319003
1.5405051 0.028712999 0.70436698
1.540483 0.030145001 0.70358503
1.567587 0.42059201 0.84618801
1.5678459 0.421195 0.852979
1.5679179 0.42214799 0.857108
1.567861 0.42568099 0.851255
1.567812 0.427441 0.84883898
1.567883 0.42862999 0.85061699
1.546087 -0.0057680001 0.84706402
1.546204 -0.0042630001 0.84792799
1.546194 -0.0029279999 0.84673297
1.5463459 -0.001248 0.84944898
1.541512 0.019653 0.704467
1.541519 0.020894 0.702757
1.541636 0.022863001 0.70660698
1.5418251 0.024455 0.70829701
1.542864 0.026844 0.70183498
1.542917 0.028364001 0.70177501
1.54169 0.029839 0.70085001
1.568697 0.42089099 0.843876
1.56894 0.421489 0.85107702
1.56917 0.42386001 0.85494101
1.569181 0.42506501 0.85569203
1.569075 0.426943 0.85225302
1.569123 0.42869899 0.84994298
1.569219 0.42965901 0.85345799
1.547299 -0.005808 0.84700203
1.547315 -0.003062 0.846358
1.547462 -0.0013839999 0.84917599
1.542612 0.017645 0.70045203
1.543933 0.019206 0.70156401
1.5442131 0.021256 0.70644701
1.544265 0.024114 0.704988
1.544207 0.025471 0.70245898
1.544296 0.026966 0.70403999
1.544238 0.028322 0.70151103
1.544228 0.029758001 0.70042199
1.544354 0.03153 0.703857
1.5699511 0.42226699 0.84395599
1.57019 0.42286399 0.85125899
1.5702159 0.42417401 0.85170501
1.570303 0.42536899 0.853073
1.5702749 0.42877501 0.84895903
1.570255 0.430307 0.84818
1.570383 0.43137801 0.850981
1.548347 -0.003553 0.84279197
1.549765 -0.001732 0.84678501
1.549827 -0.00031 0.84641498
1.545217 0.019253001 0.70232701
1.545388 0.020939 0.70453101
1.545541 0.024157999 0.70595503
1.545384 0.026493 0.69904101
1.5454 0.028100999 0.70000702
1.545521 0.029707 0.70087498
1.545719 0.031566001 0.70513397
1.571239 0.42164001 0.84921199
1.571366 0.422948 0.84966099
1.571478 0.42377701 0.855223
1.571471 0.42708901 0.85049301
1.571537 0.428377 0.85247803
1.572739 0.431411 0.85013902
